ncols         335
nrows         32
xllcorner     -13649925.5076
yllcorner     4637926.18768
cellsize      0.91307512910743
NODATA_value  -9999
23.5967 23.7059 23.80992 23.90753 23.99607 24.06968 24.14178 24.21472 24.28781 24.36003 24.4306 24.49896 24.56477 24.62784 24.68805 24.74537 24.79977 24.85114 24.8991 24.94247 24.9789 25.00547 25.03457 25.06531 25.09806 25.13296 25.16983 25.20839 25.2484 25.28964 25.33192 25.3751 25.41894 25.46316 25.50745 25.55161 25.5955 25.63912 25.68239 25.72514 25.76698 25.80734 25.84563 25.8812 25.91342 25.94183 25.96612 25.98647 26.00395 26.02327 26.04443 26.06705 26.0904 26.11382 26.13688 26.15931 26.18098 26.20193 26.22215 26.2418 26.26093 26.27966 26.29809 26.31626 26.33418 26.35187 26.36931 26.38646 26.40334 26.41995 26.43632 26.45251 26.46859 26.48465 26.50075 26.51698 26.53342 26.55011 26.56701 26.58404 26.60112 26.61821 26.63521 26.65192 26.66819 26.68386 26.69888 26.71323 26.72684 26.73964 26.75164 26.76291 26.77354 26.78371 26.7936 26.8034 26.8136 26.82425 26.83551 26.84754 26.86044 26.87433 26.88932 26.90542 26.92262 26.9408 26.95977 26.97923 26.99888 27.0184 27.03743 27.05562 27.07265 27.08823 27.10208 27.11398 27.12381 27.13147 27.13691 27.14017 27.14129 27.14038 27.13754 27.13286 27.12648 27.11853 27.10912 27.09835 27.08632 27.07312 27.05882 27.04354 27.02732 27.01015 26.99208 26.97311 26.95321 26.93237 26.91053 26.88766 26.86369 26.83857 26.8123 26.78492 26.75651 26.72718 26.69707 26.66633 26.63507 26.60344 26.57155 26.53956 26.50762 26.47592 26.44464 26.41389 26.38367 26.35397 26.32468 26.29573 26.26705 26.2386 26.21037 26.18236 26.1546 26.1271 26.09992 26.07327 26.04749 26.02334 26.00247 25.98884 25.97648 25.96114 25.94531 25.92922 25.91188 25.89259 25.87194 25.85082 25.83 25.80998 25.79105 25.77328 25.75669 25.74124 25.72693 25.71371 25.70156 25.69047 25.68034 25.67107 25.66248 25.65442 25.64672 25.63922 25.63186 25.62463 25.61759 25.61087 25.60466 25.59917 25.59464 25.59128 25.58925 25.58866 25.58949 25.59168 25.59517 25.59992 25.60596 25.61337 25.62223 25.63261 25.6446 25.65829 25.67369 25.69073 25.7093 25.72924 25.75043 25.77246 25.79489 25.81715 25.83869 25.85946 25.87968 25.90017 25.92107 25.94417 25.96857 26.00188 26.04153 26.08183 26.12215 26.16614 26.21406 26.2658 26.32168 26.38168 26.44535 26.51197 26.58078 26.65122 26.7228 26.7951 26.8677 26.94005 27.01159 27.08186 27.15059 27.21777 27.28355 27.3482 27.41199 27.47499 27.53706 27.59743 27.65514 27.70894 27.75779 27.8014 27.8401 27.87494 27.90627 27.93611 27.96246 27.99054 28.01078 28.03502 28.0515 28.06455 28.0782 28.08574 28.08553 28.0794 28.07331 28.07966 28.1011 28.12696 28.14991 28.16743 28.17969 28.18779 28.19264 28.19482 28.19463 28.1921 28.18692 28.17848 28.16623 28.15066 28.13419 28.12084 28.10998 28.09858 28.08374 28.06479 28.04993 28.0332 28.01029 27.99201 27.96739 27.9438 27.91613 27.88744 27.85878 27.82995 27.80187 27.77533 27.75048 27.72685 27.70389 27.68125 27.65879 27.63635 27.61357 27.59002 27.56532 27.53932 27.5121 27.48377 27.45442 27.42416 27.39317 27.36164 27.32987 27.29811 27.26659 27.23546 27.20472 27.1744 27.14458 27.1154 27.08708
23.57889 23.68972 23.79493 23.89332 23.98212 24.05041 24.12313 24.19833 24.27372 24.34805 24.42058 24.49077 24.5583 24.62294 24.68457 24.74318 24.79873 24.85118 24.90038 24.94566 24.98505 25.00961 25.03719 25.06786 25.10093 25.13611 25.17319 25.2119 25.25199 25.29327 25.33554 25.37864 25.42235 25.46636 25.51034 25.55408 25.59741 25.64031 25.68273 25.72454 25.76537 25.80466 25.8418 25.87617 25.90719 25.93449 25.95803 25.97826 25.99648 26.01394 26.03521 26.05866 26.08286 26.10694 26.13045 26.1531 26.17485 26.19571 26.21574 26.2351 26.25388 26.27222 26.2902 26.30789 26.32532 26.34249 26.35941 26.37605 26.3924 26.40847 26.42429 26.43991 26.45539 26.47082 26.48626 26.50179 26.51749 26.5334 26.5495 26.5657 26.58197 26.59819 26.61433 26.63022 26.64573 26.6607 26.67505 26.6888 26.70193 26.71444 26.7263 26.73756 26.7483 26.75868 26.76889 26.77931 26.79 26.80113 26.81283 26.82519 26.83826 26.85209 26.86672 26.88213 26.89832 26.91517 26.93255 26.95022 26.96795 26.98545 27.00243 27.01859 27.03364 27.04733 27.05944 27.06979 27.07824 27.0847 27.08914 27.09157 27.09201 27.09058 27.08734 27.0824 27.07584 27.06778 27.05832 27.04755 27.03554 27.02238 27.00817 26.99296 26.9768 26.95972 26.94173 26.92284 26.90301 26.88224 26.86047 26.83766 26.81376 26.78873 26.76259 26.7354 26.70724 26.67823 26.64851 26.61823 26.58751 26.55645 26.52521 26.49396 26.46289 26.43224 26.40217 26.37282 26.34421 26.31628 26.28891 26.26202 26.23551 26.20935 26.1835 26.15798 26.13281 26.10802 26.08365 26.06008 26.03781 26.01739 25.99887 25.9807 25.96283 25.94391 25.92455 25.90497 25.88483 25.86389 25.84236 25.82072 25.79947 25.77895 25.75941 25.74096 25.72366 25.70751 25.69252 25.67866 25.66593 25.65427 25.64361 25.63387 25.62486 25.61647 25.60852 25.60094 25.59367 25.58666 25.57999 25.57372 25.568 25.56298 25.55883 25.55571 25.5538 25.55318 25.55388 25.55585 25.55902 25.56337 25.56892 25.57576 25.58396 25.59364 25.6049 25.61786 25.63259 25.64902 25.66704 25.68644 25.70694 25.72823 25.74988 25.77147 25.79268 25.81353 25.83416 25.85513 25.877 25.90079 25.92745 25.96007 25.99726 26.03292 26.0657 26.10464 26.14786 26.19458 26.24596 26.30227 26.36289 26.42691 26.49343 26.56178 26.63154 26.7024 26.77405 26.84607 26.91791 26.9891 27.05922 27.12812 27.1958 27.2624 27.32807 27.39281 27.4564 27.51833 27.57777 27.63373 27.68539 27.73231 27.77453 27.81255 27.847 27.8789 27.90835 27.93697 27.96217 27.98767 28.00111 28.01293 28.03131 28.04011 28.03875 28.02882 28.01479 28.01819 28.04368 28.07198 28.09422 28.10918 28.11857 28.12429 28.12755 28.12898 28.12884 28.1271 28.12337 28.11675 28.10592 28.09019 28.07218 28.06058 28.0535 28.04601 28.03303 28.01284 28.00124 27.98908 27.96661 27.94487 27.92034 27.89495 27.86739 27.83867 27.80965 27.78061 27.75203 27.72436 27.69777 27.67211 27.64711 27.62254 27.59819 27.57386 27.54927 27.52408 27.49801 27.47091 27.44281 27.41374 27.38383 27.35316 27.32185 27.29007 27.25805 27.22597 27.19407 27.16247 27.13124 27.10044 27.07018 27.04057 27.01183
23.55662 23.66824 23.773 23.8688 23.95212 24.02046 24.09986 24.17923 24.25731 24.33379 24.40821 24.48016 24.54927 24.61537 24.67827 24.73796 24.79437 24.8473 24.89639 24.94059 24.97775 25.00538 25.03627 25.0688 25.1029 25.13868 25.17614 25.21511 25.25537 25.29674 25.33902 25.38205 25.4256 25.46937 25.51305 25.55638 25.5992 25.64147 25.68316 25.72415 25.76413 25.80252 25.83876 25.87226 25.90243 25.92896 25.95182 25.97132 25.98836 26.00483 26.02723 26.05159 26.07639 26.10085 26.12453 26.14722 26.16888 26.18956 26.20936 26.2284 26.24684 26.26478 26.28234 26.29957 26.31651 26.33321 26.34962 26.36577 26.38163 26.3972 26.41251 26.42761 26.44254 26.45737 26.4722 26.48708 26.50208 26.51725 26.53258 26.54802 26.5635 26.57895 26.59426 26.60939 26.62418 26.63853 26.6523 26.66552 26.6782 26.69037 26.70205 26.71326 26.72405 26.73458 26.74519 26.75588 26.76682 26.77818 26.79006 26.80252 26.81557 26.82922 26.84345 26.85821 26.87348 26.88914 26.9051 26.92116 26.93713 26.95277 26.96786 26.98215 26.99538 27.00733 27.01783 27.02671 27.03384 27.03915 27.0426 27.0442 27.04396 27.04199 27.03833 27.03307 27.02629 27.0181 27.00856 26.99777 26.98578 26.97267 26.95852 26.9434 26.92733 26.91034 26.89245 26.87364 26.8539 26.83321 26.81154 26.78884 26.76505 26.74018 26.71424 26.68731 26.65947 26.63085 26.60159 26.57181 26.54164 26.5112 26.48063 26.45015 26.41998 26.39039 26.3616 26.33372 26.30678 26.2807 26.25536 26.23063 26.20641 26.18263 26.15926 26.13625 26.11361 26.09133 26.06946 26.04832 26.02853 26.01059 25.99321 25.971 25.94848 25.92581 25.90318 25.88063 25.85807 25.83541 25.81276 25.79038 25.76854 25.74747 25.72734 25.70825 25.69028 25.67346 25.65779 25.64331 25.62999 25.61778 25.60662 25.59642 25.58703 25.57832 25.57018 25.56252 25.5553 25.54849 25.54214 25.5363 25.53106 25.52651 25.52277 25.51996 25.51822 25.51763 25.51824 25.52001 25.52291 25.52692 25.53205 25.53838 25.54597 25.55495 25.56544 25.57758 25.59145 25.60704 25.62425 25.64285 25.66256 25.68307 25.70401 25.72511 25.7462 25.76727 25.78846 25.81018 25.83309 25.85795 25.8858 25.91785 25.95303 25.98719 26.01226 26.04835 26.08746 26.12846 26.1751 26.22773 26.28533 26.34666 26.41064 26.47656 26.54403 26.61288 26.68301 26.7541 26.82571 26.89729 26.96834 27.03855 27.10779 27.17603 27.24333 27.3096 27.37465 27.43802 27.49908 27.55706 27.61122 27.661 27.70619 27.74701 27.78394 27.81777 27.84906 27.87853 27.9056 27.93049 27.94909 27.96714 27.98796 27.99646 27.99653 27.99009 27.97878 27.9818 28.00199 28.02761 28.04499 28.05458 28.05955 28.06215 28.06354 28.06414 28.0641 28.06332 28.06152 28.05774 28.04993 28.03529 28.0141 28.00423 28.00064 27.99746 27.9889 27.96977 27.95421 27.93857 27.91747 27.8945 27.8695 27.84315 27.81541 27.78675 27.75772 27.72866 27.69983 27.67151 27.6438 27.6167 27.59009 27.56383 27.53777 27.51175 27.48551 27.45881 27.43142 27.40322 27.37418 27.34433 27.31377 27.28261 27.25093 27.21886 27.18656 27.15421 27.12197 27.08999 27.05835 27.02713 26.99646 26.96646 26.93729
23.53054 23.64322 23.74857 23.84488 23.93019 24.00532 24.08337 24.16197 24.24055 24.31823 24.39412 24.46753 24.53801 24.60534 24.66936 24.72999 24.78715 24.8405 24.88952 24.93331 24.9707 25.00221 25.03545 25.06947 25.10448 25.14085 25.17871 25.218 25.2585 25.3 25.34232 25.38527 25.42865 25.47219 25.51556 25.55849 25.60086 25.64259 25.68367 25.72402 25.76332 25.80107 25.8367 25.86966 25.89945 25.92571 25.94841 25.96774 25.98457 26.00127 26.02307 26.04711 26.07171 26.09595 26.11939 26.14182 26.1632 26.18358 26.20306 26.22175 26.2398 26.25735 26.27448 26.29127 26.30775 26.32398 26.33994 26.35562 26.37102 26.38614 26.40098 26.4156 26.43 26.4443 26.45856 26.47283 26.48719 26.50164 26.51624 26.53095 26.5457 26.56041 26.57499 26.58937 26.60349 26.61724 26.63051 26.64327 26.65554 26.66738 26.67883 26.68993 26.70071 26.71146 26.72218 26.73299 26.74402 26.75542 26.76729 26.77964 26.79249 26.80581 26.81955 26.83366 26.84806 26.86264 26.87732 26.89194 26.90634 26.92031 26.93369 26.94626 26.95781 26.96816 26.97717 26.98468 26.99057 26.99479 26.99729 26.99808 26.99717 26.99464 26.99055 26.98496 26.97794 26.96957 26.95993 26.94909 26.9371 26.92403 26.90995 26.89492 26.87895 26.86208 26.84428 26.82559 26.80594 26.78537 26.7638 26.74124 26.71762 26.69296 26.66727 26.64066 26.61321 26.58504 26.55628 26.52705 26.49746 26.46763 26.43775 26.40804 26.37881 26.35032 26.32283 26.29647 26.27126 26.24711 26.22385 26.20135 26.17946 26.1581 26.13718 26.1166 26.09628 26.07619 26.05626 26.03651 26.0173 25.99935 25.97988 25.95662 25.9318 25.90648 25.88118 25.85617 25.8315 25.80718 25.78331 25.76001 25.73743 25.71569 25.69491 25.67517 25.65655 25.63905 25.62274 25.60764 25.59373 25.58097 25.56931 25.55866 25.54889 25.53988 25.53154 25.5238 25.51662 25.50999 25.50396 25.49855 25.4938 25.48977 25.4865 25.48406 25.48256 25.48207 25.48265 25.48428 25.48696 25.49067 25.49543 25.50131 25.50834 25.51666 25.52639 25.53765 25.55055 25.56514 25.58134 25.59897 25.61775 25.63743 25.65771 25.6784 25.6994 25.72073 25.74254 25.76505 25.78882 25.81446 25.84259 25.87362 25.90639 25.93818 25.9664 25.99957 26.03423 26.06776 26.10976 26.15907 26.21374 26.27227 26.33339 26.39638 26.46096 26.5272 26.59515 26.66471 26.73552 26.80699 26.87853 26.94969 27.02015 27.08974 27.15841 27.22603 27.29236 27.35705 27.41958 27.4793 27.53553 27.58768 27.63536 27.67851 27.71747 27.75284 27.78527 27.81532 27.84307 27.86835 27.89019 27.91066 27.92968 27.94043 27.94398 27.94248 27.93957 27.94574 27.96371 27.98652 27.99699 28.00036 28.00102 28.00094 28.00081 28.00076 28.00084 28.00098 28.00104 28.00045 27.99748 27.98836 27.96932 27.95704 27.95067 27.94544 27.93631 27.92052 27.90383 27.88589 27.86475 27.84134 27.81603 27.78928 27.76137 27.73275 27.70378 27.67476 27.64584 27.61715 27.58872 27.56061 27.53274 27.50508 27.47753 27.44999 27.42227 27.39417 27.36555 27.33627 27.30627 27.27562 27.24438 27.21267 27.18057 27.14819 27.11561 27.08302 27.05052 27.01823 26.98625 26.95469 26.92366 26.89329 26.86373
23.50124 23.61571 23.72313 23.82265 23.91357 23.99595 24.06926 24.14499 24.22319 24.30169 24.37874 24.45333 24.52492 24.59329 24.65828 24.71981 24.77781 24.83195 24.88171 24.92651 24.96589 25.00085 25.03557 25.07035 25.10586 25.14264 25.18088 25.22051 25.26128 25.30296 25.34534 25.38825 25.43148 25.47478 25.51784 25.56041 25.60236 25.64362 25.68422 25.72407 25.76289 25.80023 25.83553 25.86833 25.89815 25.92472 25.94795 25.96788 25.985 26.00131 26.02217 26.04518 26.06884 26.09228 26.11504 26.13691 26.15779 26.17774 26.19682 26.21511 26.23278 26.24992 26.26664 26.28299 26.29903 26.31483 26.33036 26.34562 26.36058 26.37527 26.38968 26.40383 26.41777 26.43157 26.44529 26.45901 26.47275 26.48658 26.50048 26.51449 26.52854 26.54256 26.55644 26.57016 26.58363 26.5968 26.60959 26.62194 26.63384 26.64537 26.65658 26.6675 26.6783 26.68902 26.69975 26.71056 26.72158 26.73289 26.74457 26.75666 26.76915 26.78203 26.79519 26.80858 26.82213 26.83571 26.84921 26.86254 26.87552 26.888 26.89984 26.91086 26.92091 26.92981 26.93744 26.94367 26.94841 26.9516 26.95321 26.95322 26.95166 26.94857 26.94404 26.9381 26.93081 26.92226 26.91249 26.90158 26.88958 26.87655 26.86254 26.8476 26.83173 26.81496 26.79728 26.77869 26.75915 26.7387 26.71729 26.6949 26.6715 26.6471 26.62174 26.5955 26.56847 26.54079 26.51256 26.4839 26.45489 26.4257 26.39652 26.36762 26.33934 26.31199 26.28583 26.26102 26.23757 26.21536 26.19421 26.17397 26.1544 26.13542 26.11684 26.0985 26.08028 26.06205 26.04364 26.0247 26.00491 25.98587 25.96433 25.9397 25.91319 25.88588 25.8585 25.83146 25.80495 25.77908 25.75393 25.72958 25.70611 25.6836 25.66211 25.64169 25.6224 25.60425 25.58731 25.5716 25.5571 25.5438 25.53162 25.52051 25.51033 25.50102 25.49247 25.48464 25.47751 25.47109 25.4654 25.46044 25.45623 25.45275 25.45003 25.44806 25.4469 25.44659 25.44721 25.44876 25.45124 25.4547 25.45914 25.4646 25.47115 25.47886 25.48786 25.49824 25.51016 25.52367 25.53875 25.55526 25.57302 25.59179 25.61138 25.63166 25.65254 25.67407 25.69633 25.71953 25.744 25.77014 25.79826 25.82846 25.85991 25.89118 25.92173 25.95439 25.98729 26.01254 26.0514 26.09796 26.14962 26.20503 26.2628 26.32218 26.38311 26.44595 26.51104 26.57845 26.64787 26.71876 26.79038 26.86209 26.93344 27.0041 27.07389 27.1426 27.21001 27.27581 27.33956 27.4007 27.4586 27.51264 27.5623 27.60737 27.64797 27.68457 27.71782 27.74827 27.77629 27.80197 27.82515 27.84634 27.86475 27.87752 27.8849 27.88871 27.89219 27.90066 27.91533 27.93137 27.9399 27.94241 27.94212 27.94109 27.94025 27.93994 27.9402 27.9409 27.94176 27.94198 27.93984 27.93267 27.91949 27.90804 27.89956 27.89175 27.88142 27.86689 27.85001 27.83111 27.80967 27.78606 27.76064 27.73381 27.70591 27.67736 27.64848 27.6195 27.5905 27.56157 27.53268 27.50385 27.47503 27.44624 27.41742 27.38854 27.35948 27.33011 27.30033 27.27 27.23909 27.20763 27.17571 27.14344 27.1109 27.07817 27.04535 27.01254 26.97982 26.94731 26.91509 26.88327 26.85198 26.82129 26.79136
23.46901 23.58576 23.69576 23.79854 23.89375 23.98044 24.04895 24.12474 24.20443 24.28436 24.36257 24.4381 24.51055 24.57974 24.64558 24.70802 24.76701 24.82232 24.8736 24.92043 24.96254 25.0004 25.036 25.07098 25.10668 25.14379 25.18245 25.22249 25.2636 25.30552 25.34801 25.39092 25.43402 25.47708 25.51984 25.56207 25.60363 25.64451 25.68472 25.7242 25.76269 25.79979 25.835 25.86789 25.89808 25.9254 25.94977 25.97106 25.98909 26.00427 26.02383 26.04519 26.06733 26.08951 26.11127 26.13234 26.15257 26.17197 26.19057 26.20845 26.22572 26.24248 26.25879 26.27474 26.29038 26.30577 26.32089 26.33574 26.3503 26.36458 26.37858 26.39232 26.40582 26.41916 26.43239 26.44558 26.45877 26.472 26.48527 26.4986 26.51197 26.52533 26.53859 26.55168 26.56455 26.57717 26.58948 26.60143 26.613 26.62423 26.63517 26.64595 26.65658 26.66718 26.67781 26.68854 26.69944 26.71057 26.72198 26.7337 26.74572 26.75802 26.77053 26.78316 26.79583 26.80843 26.82085 26.83298 26.84468 26.85582 26.86627 26.8759 26.88458 26.89217 26.89856 26.90364 26.90731 26.90955 26.91031 26.90958 26.9074 26.90378 26.8988 26.89251 26.88495 26.87618 26.86627 26.85529 26.84327 26.83026 26.81631 26.80146 26.7857 26.76904 26.75145 26.73298 26.71358 26.69328 26.67204 26.64985 26.62671 26.60262 26.57762 26.5518 26.52524 26.49807 26.47038 26.44229 26.41389 26.38538 26.35694 26.32891 26.30162 26.27544 26.25064 26.22738 26.20567 26.18537 26.1663 26.14822 26.1309 26.11416 26.09776 26.08144 26.06501 26.04835 26.03136 26.01378 25.99511 25.9726 25.94801 25.9213 25.89305 25.86404 25.83494 25.80619 25.77807 25.75077 25.72436 25.69892 25.6745 25.65115 25.62889 25.60777 25.58781 25.56904 25.55149 25.53519 25.52011 25.50624 25.49353 25.48192 25.47131 25.46166 25.4529 25.445 25.43796 25.43178 25.42647 25.42202 25.41841 25.41558 25.41346 25.41204 25.41129 25.41126 25.41199 25.41351 25.41586 25.41909 25.42323 25.42834 25.43443 25.4416 25.44991 25.45949 25.47046 25.48291 25.49683 25.51218 25.52882 25.54663 25.56545 25.58522 25.60589 25.62747 25.65004 25.67371 25.69868 25.72521 25.75341 25.78327 25.81432 25.84576 25.87737 25.90951 25.94078 25.96908 26.00407 26.04702 26.09472 26.14635 26.19999 26.25478 26.31108 26.36967 26.4312 26.49586 26.5634 26.63319 26.70442 26.7763 26.84818 26.91959 26.99021 27.05978 27.12803 27.19467 27.25934 27.32154 27.3807 27.43618 27.48742 27.53401 27.57596 27.6136 27.64752 27.67833 27.70652 27.73241 27.75605 27.77753 27.7962 27.81084 27.8215 27.82959 27.83724 27.84702 27.85928 27.87113 27.87846 27.88128 27.88144 27.88063 27.87988 27.87968 27.88011 27.88105 27.88201 27.88214 27.88011 27.87439 27.86494 27.85501 27.84575 27.83625 27.82486 27.81052 27.7936 27.77436 27.75282 27.72919 27.70383 27.6771 27.64935 27.62095 27.59219 27.56324 27.53418 27.50507 27.47583 27.44646 27.41691 27.38721 27.35735 27.32731 27.29705 27.26653 27.23565 27.20434 27.17257 27.14034 27.10775 27.07492 27.04193 27.00888 26.97583 26.94284 26.90997 26.87733 26.84499 26.81302 26.78155 26.75063 26.72041
23.43423 23.55357 23.66602 23.7707 23.86603 23.9495 24.01948 24.1023 24.18573 24.26734 24.34637 24.42245 24.49542 24.56522 24.63177 24.6951 24.75518 24.81186 24.86498 24.91427 24.95937 24.99981 25.03549 25.07028 25.10621 25.14386 25.18315 25.22377 25.26534 25.30758 25.35025 25.39318 25.43617 25.47901 25.5215 25.5634 25.60462 25.64515 25.68504 25.72423 25.7625 25.79947 25.83469 25.8678 25.89847 25.92663 25.95233 25.97551 25.99568 26.01033 26.02712 26.04607 26.06632 26.08705 26.10768 26.12783 26.14735 26.16616 26.18426 26.20171 26.21858 26.23496 26.25092 26.26651 26.28178 26.29679 26.31152 26.32599 26.34017 26.35406 26.36768 26.38103 26.39413 26.40705 26.41982 26.43251 26.44518 26.45785 26.47053 26.48325 26.49598 26.50871 26.52136 26.53387 26.54618 26.55828 26.57013 26.58168 26.59291 26.60384 26.61456 26.62508 26.63549 26.64588 26.65632 26.66688 26.67756 26.68843 26.6995 26.71079 26.72227 26.73394 26.74574 26.75756 26.76934 26.78098 26.79236 26.80336 26.81389 26.82381 26.833 26.84138 26.84883 26.85523 26.8605 26.86452 26.86723 26.86859 26.86856 26.86716 26.86438 26.86025 26.85486 26.84822 26.84038 26.8314 26.82134 26.81026 26.7982 26.78522 26.77132 26.75654 26.74088 26.72432 26.70685 26.6885 26.66924 26.64911 26.62808 26.60616 26.58331 26.55956 26.53495 26.50956 26.48349 26.45683 26.42969 26.40219 26.37444 26.34665 26.31903 26.29195 26.26572 26.24075 26.2173 26.19555 26.1755 26.15702 26.13991 26.12389 26.10865 26.09395 26.0795 26.06492 26.04988 26.03428 26.01799 26.00032 25.98024 25.95632 25.92974 25.90119 25.87132 25.84079 25.8102 25.78 25.75049 25.72189 25.69431 25.6678 25.64242 25.61821 25.59518 25.57336 25.55276 25.53339 25.51527 25.4984 25.48275 25.46831 25.45503 25.44288 25.43182 25.42181 25.41285 25.40491 25.398 25.39214 25.38731 25.38346 25.38051 25.37837 25.37695 25.37613 25.37587 25.37618 25.37709 25.37864 25.38092 25.38397 25.38784 25.39261 25.39828 25.40495 25.41265 25.42151 25.43163 25.44307 25.45588 25.47008 25.48559 25.50237 25.52035 25.53948 25.55978 25.58124 25.60392 25.62787 25.65319 25.68002 25.70849 25.73849 25.76978 25.80187 25.83454 25.86758 25.90039 25.93296 25.96885 26.008 26.05006 26.09722 26.14571 26.19468 26.24518 26.29859 26.3559 26.41739 26.48263 26.5509 26.62127 26.69286 26.76486 26.83666 26.9078 26.97794 27.04676 27.11397 27.17926 27.24216 27.30219 27.35872 27.41114 27.45898 27.50208 27.54065 27.57521 27.60642 27.63483 27.66087 27.68475 27.70648 27.72573 27.74197 27.75523 27.76637 27.77668 27.78733 27.79832 27.80811 27.81476 27.81807 27.81907 27.81897 27.81874 27.81887 27.8195 27.82048 27.82132 27.8212 27.8192 27.81446 27.80707 27.79836 27.78901 27.77868 27.76657 27.75209 27.73518 27.71592 27.69447 27.67102 27.64589 27.61942 27.59193 27.56376 27.53515 27.50625 27.47714 27.44785 27.41832 27.38851 27.35838 27.32794 27.29721 27.2662 27.23489 27.20332 27.17144 27.1392 27.10658 27.07363 27.04044 27.00709 26.9737 26.94036 26.90712 26.874 26.84106 26.80838 26.77602 26.74403 26.7125 26.68149 26.65108
23.39758 23.52001 23.6356 23.74322 23.84129 23.9282 24.00569 24.08864 24.17129 24.2522 24.33084 24.40685 24.48001 24.55018 24.61734 24.68147 24.74258 24.80057 24.85536 24.90683 24.95459 24.99743 25.03213 25.06691 25.1037 25.14249 25.18284 25.22429 25.26647 25.30909 25.35196 25.39492 25.43783 25.48049 25.52271 25.56432 25.60524 25.64546 25.68506 25.724 25.76208 25.79897 25.83421 25.86747 25.89846 25.9271 25.95347 25.97739 25.99801 26.01277 26.02834 26.04583 26.0647 26.08422 26.10383 26.12314 26.14195 26.16018 26.17779 26.19484 26.21135 26.22739 26.24302 26.25828 26.27321 26.28787 26.30225 26.31636 26.33017 26.34371 26.35696 26.36995 26.38268 26.39521 26.40754 26.41979 26.43196 26.44411 26.45624 26.46838 26.48053 26.49265 26.50472 26.51668 26.52848 26.54008 26.55148 26.56263 26.57349 26.58413 26.59455 26.60481 26.61498 26.62511 26.63528 26.64556 26.65595 26.66647 26.67713 26.68794 26.69887 26.70988 26.72092 26.73193 26.74282 26.75351 26.76387 26.77381 26.78323 26.79203 26.80009 26.80733 26.81367 26.81902 26.82325 26.82631 26.82814 26.82871 26.82796 26.82592 26.82259 26.818 26.8122 26.80521 26.79711 26.78792 26.7777 26.76653 26.75443 26.74144 26.72759 26.71288 26.69729 26.68082 26.66348 26.64526 26.62618 26.60624 26.58546 26.56382 26.54131 26.51792 26.49371 26.46876 26.44317 26.41703 26.39047 26.3636 26.33657 26.30958 26.28289 26.25683 26.23175 26.20801 26.18588 26.16557 26.14705 26.13022 26.11487 26.10069 26.0873 26.07441 26.06163 26.04851 26.03448 26.01957 26.00387 25.9854 25.9632 25.93747 25.90914 25.87896 25.84763 25.81577 25.78391 25.75247 25.72177 25.69202 25.66338 25.6359 25.60963 25.58462 25.56087 25.53841 25.51723 25.49732 25.47865 25.46122 25.44501 25.42999 25.41615 25.40345 25.39192 25.38157 25.37242 25.3645 25.35782 25.35238 25.34811 25.34494 25.34274 25.34137 25.34066 25.34048 25.34076 25.34145 25.34259 25.34424 25.34648 25.34938 25.35303 25.35748 25.36279 25.369 25.37617 25.38437 25.39372 25.40427 25.41608 25.42921 25.44362 25.45937 25.47642 25.49482 25.5146 25.53576 25.55833 25.58237 25.60789 25.63502 25.66382 25.69428 25.72624 25.75938 25.79346 25.82839 25.8641 25.90121 25.94128 25.98316 26.01584 26.05801 26.10007 26.14166 26.18515 26.2326 26.28533 26.34341 26.40614 26.47255 26.54162 26.6124 26.68403 26.75578 26.82708 26.89747 26.96658 27.03409 27.09969 27.16298 27.2235 27.28072 27.33401 27.38283 27.42694 27.4664 27.50166 27.53333 27.56207 27.58833 27.61245 27.63453 27.65442 27.67193 27.6871 27.70036 27.71242 27.72377 27.73432 27.74329 27.74974 27.75357 27.75539 27.75612 27.75653 27.75707 27.75789 27.75883 27.75951 27.75922 27.75724 27.7531 27.74679 27.73884 27.72963 27.71902 27.70657 27.69197 27.67512 27.65604 27.63486 27.61177 27.58703 27.56096 27.53382 27.50595 27.47754 27.44874 27.4196 27.39013 27.36032 27.33012 27.29949 27.26843 27.23695 27.20511 27.17289 27.14038 27.10758 27.07447 27.04108 27.00745 26.97369 26.93991 26.9062 26.87266 26.83928 26.80611 26.77317 26.74054 26.70826 26.67639 26.64495 26.61398 26.58356
23.35988 23.48594 23.60552 23.71764 23.8212 23.91522 24.00031 24.08056 24.1596 24.23819 24.31571 24.39132 24.46453 24.53503 24.60273 24.66757 24.72953 24.78848 24.84433 24.89693 24.94592 24.99007 25.02347 25.05991 25.09903 25.13982 25.18165 25.22413 25.26698 25.31001 25.35308 25.39609 25.43891 25.48141 25.5234 25.56474 25.60538 25.64533 25.68466 25.72336 25.76127 25.79804 25.83325 25.8665 25.89751 25.92615 25.95237 25.97596 25.99618 26.01056 26.0263 26.04357 26.06184 26.0806 26.09942 26.11803 26.13623 26.15393 26.17112 26.18778 26.20397 26.21972 26.23507 26.25004 26.26467 26.279 26.29306 26.30684 26.32032 26.33351 26.34643 26.35906 26.37143 26.38359 26.39554 26.40738 26.41909 26.43075 26.44237 26.45398 26.46556 26.47711 26.48862 26.50005 26.51135 26.52249 26.53345 26.54418 26.55468 26.56498 26.57511 26.58509 26.59498 26.60481 26.61466 26.62458 26.63459 26.6447 26.65491 26.66519 26.67553 26.68587 26.69617 26.70636 26.71637 26.72612 26.73551 26.74444 26.75282 26.76057 26.76759 26.77381 26.77914 26.78351 26.78683 26.78904 26.79007 26.78991 26.7885 26.78588 26.78204 26.77701 26.77083 26.76353 26.75515 26.74575 26.73539 26.72411 26.71195 26.69896 26.68513 26.67046 26.65494 26.63856 26.62134 26.60327 26.58439 26.5647 26.5442 26.52287 26.5007 26.4777 26.45389 26.42938 26.40427 26.37867 26.35272 26.32656 26.30035 26.27429 26.24866 26.22374 26.19987 26.17737 26.15649 26.13742 26.12023 26.10483 26.091 26.07838 26.06652 26.05511 26.04365 26.03181 26.01837 26.00399 25.99071 25.9689 25.94368 25.91581 25.88578 25.85418 25.82159 25.78858 25.75565 25.7232 25.69151 25.66082 25.63127 25.60295 25.57592 25.55023 25.52589 25.50289 25.48121 25.46081 25.44166 25.42372 25.40696 25.39137 25.37696 25.36374 25.35177 25.34112 25.33186 25.32405 25.31771 25.31278 25.30919 25.30678 25.30537 25.30477 25.30479 25.30527 25.30607 25.30717 25.30858 25.31036 25.3126 25.3154 25.31885 25.32302 25.32799 25.3338 25.3405 25.34814 25.35682 25.3666 25.37754 25.3897 25.40312 25.41786 25.43398 25.45157 25.47068 25.49137 25.51366 25.53756 25.56315 25.59049 25.61968 25.65071 25.68349 25.71785 25.75349 25.79038 25.82859 25.86861 25.91073 25.95332 25.99164 26.0275 26.06153 26.09434 26.13012 26.17129 26.21958 26.27444 26.33461 26.39888 26.46618 26.53557 26.60624 26.67743 26.74845 26.81876 26.88785 26.9554 27.02103 27.08442 27.14513 27.2027 27.25655 27.30613 27.35112 27.39146 27.42751 27.45979 27.48896 27.51557 27.54 27.56246 27.58294 27.60142 27.61791 27.63262 27.64585 27.65783 27.66844 27.67726 27.68387 27.68824 27.69081 27.69228 27.69329 27.69423 27.69522 27.69614 27.69662 27.69619 27.69423 27.69042 27.68468 27.6772 27.66815 27.65748 27.64497 27.63042 27.61375 27.59498 27.57421 27.5516 27.52739 27.50183 27.47517 27.44766 27.41949 27.3908 27.36165 27.33204 27.30198 27.27141 27.24032 27.20871 27.17657 27.14399 27.11097 27.07763 27.044 27.0101 26.97599 26.94175 26.9075 26.87336 26.83944 26.80577 26.77235 26.73919 26.70635 26.67388 26.64182 26.61018 26.57898 26.54824 26.51803
23.32192 23.45175 23.57553 23.69252 23.80206 23.90331 23.99467 24.07064 24.14617 24.22307 24.3 24.3756 24.44908 24.52006 24.58835 24.65386 24.71651 24.77608 24.8323 24.88474 24.93256 24.97437 25.0093 25.05077 25.09355 25.13673 25.18011 25.22357 25.26702 25.31038 25.35359 25.39659 25.43931 25.48164 25.52342 25.56454 25.60493 25.64464 25.68373 25.7222 25.75991 25.79653 25.83162 25.86471 25.89552 25.92377 25.94927 25.97163 25.99016 26.00466 26.02193 26.03974 26.05785 26.07612 26.09438 26.11241 26.1301 26.14737 26.16419 26.18053 26.19644 26.21193 26.22704 26.24175 26.25612 26.27017 26.28393 26.2974 26.31057 26.32345 26.33604 26.34834 26.36037 26.37219 26.38379 26.39523 26.40653 26.41772 26.42886 26.43996 26.45103 26.46206 26.47304 26.48396 26.49477 26.50546 26.51596 26.52627 26.53639 26.54634 26.55615 26.56582 26.5754 26.58492 26.59442 26.60395 26.61352 26.62317 26.63286 26.64258 26.65229 26.66197 26.67152 26.68092 26.69007 26.69891 26.70736 26.71534 26.72276 26.72953 26.73559 26.74087 26.7453 26.74879 26.75127 26.7527 26.75302 26.75219 26.75019 26.74703 26.74274 26.73729 26.73074 26.72314 26.7145 26.70489 26.69437 26.683 26.67078 26.65775 26.64393 26.62929 26.61382 26.59754 26.58044 26.56255 26.5439 26.52449 26.50431 26.48332 26.46152 26.4389 26.41549 26.39141 26.36679 26.34177 26.3165 26.29115 26.26588 26.24091 26.21648 26.19284 26.17025 26.14898 26.12921 26.11115 26.09496 26.0807 26.0681 26.05671 26.04593 26.03562 26.0249 26.01429 26.0006 25.9854 25.96873 25.94618 25.91969 25.89043 25.85913 25.8264 25.79282 25.75889 25.72511 25.69185 25.65939 25.62797 25.59771 25.56875 25.54114 25.51494 25.49015 25.46675 25.44469 25.42392 25.40434 25.38594 25.36868 25.35256 25.33763 25.32394 25.31162 25.30077 25.29152 25.28395 25.27805 25.27375 25.2709 25.26929 25.26868 25.26884 25.26955 25.27062 25.27192 25.2734 25.27509 25.27703 25.27933 25.28207 25.28537 25.28931 25.29398 25.29943 25.30571 25.31287 25.32098 25.33011 25.34032 25.35167 25.3642 25.37802 25.39324 25.40998 25.42834 25.44841 25.47022 25.49382 25.51929 25.54671 25.57622 25.60779 25.64138 25.67678 25.71379 25.75225 25.79212 25.83358 25.87639 25.91913 25.95927 25.99566 26.02533 26.05016 26.07913 26.11441 26.15911 26.2113 26.26894 26.3307 26.39567 26.46304 26.5321 26.6021 26.67235 26.74216 26.81094 26.87826 26.9437 27.00693 27.06757 27.12521 27.17934 27.22944 27.27514 27.31633 27.35321 27.38623 27.416 27.44307 27.4679 27.49077 27.51178 27.53097 27.54835 27.56401 27.57805 27.59056 27.60143 27.61045 27.61743 27.62237 27.62562 27.62775 27.62926 27.63051 27.63164 27.63254 27.63286 27.63226 27.63028 27.62663 27.62119 27.61402 27.60514 27.59455 27.58212 27.56775 27.55139 27.53302 27.51276 27.49074 27.46714 27.44218 27.41605 27.38898 27.3611 27.33257 27.30342 27.27369 27.24338 27.21247 27.18095 27.14881 27.1161 27.08284 27.04912 27.01504 26.98066 26.94604 26.91128 26.87651 26.84187 26.80746 26.7734 26.73969 26.70633 26.6733 26.64067 26.60847 26.57675 26.54551 26.51473 26.48443 26.45465
23.2843 23.41749 23.54482 23.6656 23.77926 23.88486 23.9797 24.05134 24.12714 24.20525 24.28318 24.35961 24.43384 24.50556 24.57459 24.64084 24.70416 24.76429 24.82082 24.87327 24.92097 24.96352 25.00247 25.04568 25.09005 25.13452 25.17881 25.22287 25.26666 25.31018 25.35341 25.39634 25.43893 25.48108 25.52266 25.56358 25.60377 25.64327 25.68214 25.72041 25.75792 25.79435 25.82925 25.86214 25.89267 25.92052 25.94548 25.96727 25.98571 26.00147 26.01835 26.03564 26.05323 26.07098 26.08875 26.10632 26.1236 26.14051 26.15702 26.1731 26.18876 26.20404 26.21893 26.23343 26.24757 26.26138 26.27486 26.28805 26.30093 26.31351 26.32579 26.33778 26.3495 26.36099 26.37225 26.38332 26.39423 26.405 26.41568 26.42631 26.43689 26.44744 26.45793 26.46835 26.47869 26.48889 26.49895 26.50883 26.51855 26.52814 26.5376 26.54694 26.55618 26.56535 26.57449 26.5836 26.59272 26.60186 26.61101 26.62014 26.62921 26.6382 26.64702 26.65564 26.66397 26.67195 26.67952 26.6866 26.69311 26.69898 26.70415 26.70857 26.71217 26.71487 26.71659 26.71733 26.71699 26.71557 26.71304 26.7094 26.70467 26.69883 26.69193 26.68403 26.67514 26.66534 26.65467 26.64318 26.63089 26.61782 26.60398 26.58935 26.57392 26.55773 26.54076 26.52308 26.5047 26.48561 26.46577 26.44516 26.42374 26.40149 26.3785 26.35488 26.33078 26.3064 26.2819 26.25748 26.23332 26.20958 26.1865 26.16427 26.14305 26.12297 26.10412 26.08673 26.07116 26.05772 26.04601 26.03555 26.02526 26.01574 26.00455 25.99503 25.97988 25.96246 25.94268 25.91881 25.89136 25.86116 25.82897 25.79543 25.76108 25.72649 25.69209 25.65824 25.62523 25.59329 25.56256 25.53316 25.5052 25.47869 25.45365 25.43003 25.40775 25.3867 25.36683 25.34804 25.33034 25.31377 25.2984 25.28435 25.27179 25.26091 25.25183 25.24464 25.2393 25.2357 25.23363 25.23281 25.23297 25.23381 25.2351 25.23666 25.23837 25.24019 25.24214 25.24426 25.24665 25.2494 25.2526 25.25636 25.26078 25.26592 25.27185 25.27861 25.28627 25.29487 25.30447 25.31512 25.3269 25.3399 25.35428 25.37018 25.38774 25.40709 25.42829 25.45142 25.47659 25.50392 25.53355 25.56549 25.59968 25.6359 25.67385 25.71333 25.75411 25.79607 25.83883 25.88126 25.9217 25.95844 25.98894 26.00799 26.033 26.06282 26.10551 26.15551 26.2103 26.26891 26.33076 26.39536 26.46211 26.53032 26.59924 26.66811 26.73625 26.80305 26.86805 26.93089 26.99123 27.04869 27.10286 27.15325 27.1995 27.24142 27.27912 27.31296 27.34341 27.37106 27.39638 27.41968 27.44115 27.46086 27.47882 27.49508 27.50969 27.52263 27.53385 27.54321 27.55064 27.55618 27.56009 27.56279 27.56472 27.56623 27.56744 27.56828 27.56847 27.56773 27.56569 27.5621 27.55683 27.54985 27.54115 27.5307 27.51846 27.50437 27.48839 27.47049 27.4508 27.42941 27.40646 27.38215 27.35661 27.33 27.30247 27.27412 27.24502 27.21519 27.18465 27.15342 27.12148 27.08886 27.0556 27.02173 26.98736 26.95261 26.91755 26.8823 26.84698 26.81176 26.77681 26.74224 26.70812 26.67448 26.64128 26.6085 26.57619 26.5444 26.51316 26.48248 26.45233 26.42271 26.39366
23.24733 23.38298 23.51275 23.63572 23.75084 23.85599 23.94714 24.02081 24.10404 24.18611 24.26608 24.34381 24.41911 24.49182 24.56181 24.62892 24.69303 24.75386 24.81104 24.86417 24.91298 24.95773 25.00022 25.04414 25.08878 25.13347 25.17793 25.22207 25.26587 25.30933 25.35245 25.39523 25.43765 25.47962 25.52103 25.56178 25.60181 25.64115 25.67985 25.71791 25.75521 25.79144 25.82615 25.85884 25.88912 25.91671 25.94147 25.96337 25.98253 25.9995 26.01507 26.03124 26.04809 26.06532 26.08263 26.09984 26.11679 26.1334 26.14966 26.16551 26.18097 26.19606 26.21075 26.22507 26.23901 26.25258 26.26582 26.27875 26.29137 26.30367 26.31566 26.32737 26.33878 26.34996 26.36089 26.37161 26.38215 26.39253 26.4028 26.41299 26.42312 26.43321 26.44324 26.45318 26.46302 26.47276 26.48235 26.49182 26.50114 26.51036 26.51945 26.52843 26.5373 26.54609 26.55482 26.5635 26.57215 26.58076 26.58934 26.59786 26.60629 26.61458 26.6227 26.63057 26.63812 26.64529 26.65203 26.65827 26.66393 26.66897 26.67334 26.67697 26.6798 26.68178 26.68283 26.68293 26.68202 26.68006 26.67706 26.67297 26.66783 26.66164 26.65442 26.64623 26.63711 26.6271 26.61626 26.60464 26.59226 26.57913 26.56524 26.55061 26.53522 26.51912 26.50233 26.48489 26.4668 26.44806 26.4286 26.40837 26.38734 26.3655 26.34294 26.31981 26.2963 26.27265 26.24904 26.2257 26.20276 26.1804 26.15882 26.13812 26.11834 26.09945 26.08136 26.06424 26.04876 26.03587 26.02462 26.015 26.00419 25.99565 25.98332 25.97048 25.95405 25.93482 25.91282 25.88751 25.85911 25.82817 25.79533 25.76122 25.72638 25.69134 25.65652 25.6223 25.58896 25.55672 25.52574 25.49617 25.46809 25.44151 25.41644 25.39278 25.37043 25.34928 25.32922 25.31018 25.29217 25.27526 25.25957 25.24532 25.23271 25.22197 25.21326 25.2066 25.20194 25.19909 25.19779 25.1977 25.1985 25.19988 25.2016 25.20351 25.20551 25.20758 25.20975 25.21207 25.21459 25.21737 25.22053 25.22417 25.2284 25.23331 25.23896 25.24541 25.25271 25.2609 25.27002 25.28012 25.29126 25.30355 25.31716 25.33224 25.34901 25.36757 25.38807 25.41059 25.43529 25.4623 25.49181 25.52386 25.55836 25.59504 25.63353 25.67346 25.71461 25.75659 25.79896 25.84087 25.881 25.91763 25.94859 25.97226 25.99625 26.02031 26.06248 26.10926 26.15982 26.21411 26.27189 26.33288 26.39663 26.46245 26.52954 26.59706 26.66417 26.73016 26.79449 26.85674 26.91656 26.97362 27.02757 27.078 27.12458 27.16709 27.20554 27.24017 27.27139 27.29967 27.32553 27.34927 27.37114 27.39124 27.40961 27.42627 27.44125 27.45454 27.46609 27.47584 27.48376 27.48988 27.4944 27.49763 27.49995 27.50166 27.50292 27.5037 27.50379 27.50291 27.50081 27.49724 27.49207 27.48524 27.47672 27.46648 27.45449 27.44073 27.42517 27.40779 27.38869 27.36793 27.34565 27.32195 27.297 27.27089 27.24372 27.21559 27.18654 27.15663 27.1259 27.09436 27.06203 27.02895 26.99515 26.96072 26.92577 26.89041 26.85474 26.81893 26.78313 26.74755 26.71238 26.67774 26.64368 26.6102 26.57726 26.54485 26.513 26.48176 26.45117 26.42125 26.39197 26.3633 26.33526
23.21089 23.34793 23.47912 23.6036 23.72038 23.8276 23.92263 24.00526 24.08811 24.16973 24.25011 24.32879 24.40523 24.47909 24.55016 24.6183 24.68337 24.74514 24.80331 24.85761 24.90801 24.95497 24.99981 25.04428 25.08874 25.13305 25.17714 25.22095 25.26447 25.30768 25.35058 25.39315 25.43538 25.47718 25.51844 25.55904 25.59895 25.63817 25.67672 25.71462 25.75174 25.78779 25.82231 25.85483 25.88495 25.91241 25.93711 25.95918 25.97885 25.9964 26.0105 26.02594 26.04235 26.0592 26.07618 26.09308 26.10976 26.12614 26.14216 26.15781 26.17308 26.18799 26.20252 26.21666 26.23042 26.24379 26.25681 26.26951 26.28188 26.29391 26.30564 26.31707 26.32821 26.33909 26.34971 26.36009 26.37028 26.3803 26.39019 26.39998 26.40969 26.41935 26.42891 26.43838 26.44773 26.457 26.46616 26.47521 26.48413 26.49295 26.50165 26.51023 26.51871 26.52708 26.53539 26.54362 26.55177 26.55985 26.56787 26.57578 26.58356 26.59118 26.5986 26.60574 26.61255 26.61896 26.62493 26.63037 26.63527 26.63956 26.64318 26.6461 26.64825 26.64957 26.65002 26.64954 26.64812 26.64569 26.64224 26.63776 26.63225 26.62572 26.6182 26.60973 26.60035 26.59014 26.57914 26.56736 26.55487 26.54165 26.52771 26.51304 26.4977 26.48171 26.46513 26.44795 26.4302 26.41183 26.39278 26.37296 26.35233 26.33092 26.30883 26.28627 26.26345 26.24065 26.21807 26.1959 26.17429 26.1534 26.13339 26.11428 26.09604 26.07845 26.06113 26.04394 26.02783 26.01543 26.00384 25.99524 25.98321 25.97146 25.95757 25.94211 25.92391 25.90294 25.87921 25.85259 25.82328 25.79171 25.75841 25.72394 25.68882 25.65354 25.61852 25.58412 25.55066 25.51834 25.48736 25.45786 25.42989 25.40348 25.3786 25.35513 25.33291 25.31182 25.29174 25.2726 25.25444 25.23735 25.22151 25.20723 25.19477 25.1844 25.17625 25.17031 25.16642 25.16432 25.16372 25.16422 25.16549 25.16722 25.16917 25.17124 25.17337 25.17559 25.17795 25.18047 25.18316 25.18604 25.1892 25.19276 25.19687 25.20163 25.20712 25.21335 25.22039 25.22828 25.23704 25.24669 25.2573 25.26897 25.28188 25.29621 25.31218 25.32994 25.34965 25.37145 25.39551 25.42202 25.45116 25.48302 25.51749 25.55425 25.59287 25.63288 25.67394 25.71574 25.75779 25.79939 25.83965 25.87734 25.91127 25.9414 25.97092 26.0008 26.0356 26.07381 26.11759 26.16619 26.21895 26.27561 26.33579 26.39876 26.46362 26.52939 26.59513 26.66002 26.72341 26.78482 26.84389 26.90033 26.95383 27.00407 27.05072 27.09361 27.13266 27.16801 27.19997 27.22894 27.25534 27.27955 27.30181 27.32222 27.34089 27.35783 27.37308 27.38663 27.39848 27.4086 27.41698 27.42366 27.42877 27.43253 27.43521 27.43714 27.43846 27.43918 27.43916 27.43818 27.43601 27.43245 27.42736 27.42069 27.41236 27.40236 27.39067 27.37726 27.36213 27.34528 27.32675 27.30661 27.28495 27.26185 27.23745 27.21181 27.185 27.15709 27.12812 27.09814 27.06724 27.03542 27.00271 26.96919 26.93491 26.89995 26.86444 26.8285 26.7923 26.756 26.71981 26.68395 26.64864 26.61402 26.58013 26.54693 26.51438 26.48246 26.45122 26.42069 26.39095 26.36198 26.33379 26.30635 26.27966
23.17413 23.31145 23.44324 23.56903 23.68827 23.80002 23.90275 23.99512 24.07441 24.15402 24.23463 24.31448 24.39227 24.46742 24.53969 24.60896 24.67512 24.738 24.79737 24.85307 24.90508 24.95378 24.99997 25.0448 25.08886 25.13251 25.1759 25.21913 25.26219 25.30504 25.34765 25.38998 25.43201 25.47365 25.51479 25.55529 25.59511 25.63424 25.67269 25.71048 25.74747 25.78336 25.81774 25.85015 25.88017 25.90756 25.9322 25.95417 25.97354 25.99017 26.00399 26.01988 26.03623 26.05285 26.06958 26.08624 26.10267 26.11881 26.13462 26.15006 26.16516 26.17988 26.19425 26.20822 26.2218 26.23499 26.24781 26.2603 26.27245 26.28424 26.29572 26.30689 26.31776 26.32835 26.33868 26.34875 26.35862 26.3683 26.37783 26.38725 26.39656 26.4058 26.41491 26.42389 26.43277 26.44159 26.45032 26.45894 26.46746 26.47586 26.48414 26.49231 26.50036 26.5083 26.51616 26.5239 26.53156 26.53912 26.54657 26.55388 26.56104 26.568 26.57475 26.58119 26.58729 26.59299 26.59823 26.60297 26.60716 26.61076 26.61372 26.616 26.61754 26.61828 26.61818 26.6172 26.6153 26.61244 26.60859 26.60375 26.5979 26.59107 26.58325 26.57451 26.56489 26.55445 26.54326 26.53133 26.51869 26.50536 26.49133 26.47662 26.46132 26.44547 26.42912 26.41225 26.39486 26.3769 26.35826 26.33886 26.31869 26.29777 26.27624 26.25435 26.23235 26.21051 26.18905 26.16813 26.14789 26.12844 26.10996 26.09246 26.07583 26.05978 26.04365 26.02651 26.00894 25.99719 25.98424 25.97217 25.95845 25.94395 25.92789 25.91006 25.88994 25.86731 25.84209 25.81433 25.78422 25.75214 25.71853 25.68388 25.64867 25.61334 25.57831 25.54395 25.51056 25.47837 25.4476 25.41838 25.39076 25.36477 25.34029 25.3172 25.29534 25.27451 25.25462 25.23558 25.21745 25.20036 25.18458 25.17046 25.15835 25.14858 25.14122 25.13615 25.1331 25.13173 25.13169 25.1326 25.13411 25.13593 25.13789 25.1399 25.14199 25.14425 25.14676 25.14951 25.15244 25.15546 25.15866 25.16219 25.16623 25.17091 25.17633 25.18249 25.18941 25.19709 25.20558 25.21488 25.22505 25.2362 25.24847 25.26208 25.27727 25.29422 25.31311 25.3341 25.35739 25.38319 25.41175 25.44314 25.47725 25.51373 25.55213 25.59192 25.63273 25.67419 25.71604 25.75775 25.79874 25.83832 25.8761 25.91257 25.9493 25.98618 26.015 26.04392 26.08132 26.12413 26.17136 26.22323 26.27953 26.33941 26.40177 26.46548 26.52951 26.59298 26.65514 26.71548 26.77358 26.82917 26.88198 26.93176 26.97825 27.02125 27.06069 27.09662 27.12923 27.15884 27.18582 27.21048 27.2331 27.25383 27.27275 27.28992 27.30538 27.31915 27.33126 27.34172 27.35052 27.35772 27.36338 27.36765 27.37075 27.37292 27.37434 27.37503 27.37492 27.37387 27.37166 27.36812 27.36314 27.35662 27.34851 27.33877 27.32738 27.31434 27.29965 27.2833 27.26531 27.24574 27.22465 27.20212 27.17819 27.15298 27.12648 27.09877 27.06988 27.03986 27.00879 26.97671 26.94367 26.90974 26.87497 26.83951 26.80348 26.76703 26.73035 26.69364 26.65714 26.62109 26.58576 26.55125 26.51761 26.4848 26.45276 26.42148 26.391 26.36137 26.33264 26.30485 26.27797 26.25204 26.22703
23.13549 23.27206 23.40372 23.5305 23.65221 23.76835 23.87757 23.97709 24.05336 24.13491 24.21844 24.30066 24.38021 24.45674 24.5302 24.60061 24.6679 24.73198 24.79265 24.84979 24.90333 24.95335 25.00025 25.04502 25.08839 25.13111 25.17365 25.21618 25.25872 25.30118 25.3435 25.38562 25.42748 25.46899 25.51002 25.55046 25.59024 25.62933 25.66774 25.70546 25.74234 25.77814 25.81244 25.8448 25.8748 25.90221 25.92688 25.94889 25.96833 25.98529 26.0002 26.01492 26.03047 26.04666 26.06307 26.07946 26.09565 26.11155 26.12712 26.14235 26.15723 26.17178 26.18596 26.19977 26.21317 26.22619 26.23884 26.25113 26.26307 26.27466 26.2859 26.29682 26.30742 26.31773 26.32777 26.33756 26.34713 26.3565 26.36571 26.37476 26.38369 26.3925 26.40116 26.4097 26.41815 26.42653 26.43482 26.443 26.45107 26.45905 26.46688 26.47461 26.48221 26.48969 26.49708 26.50434 26.51149 26.51852 26.52542 26.53216 26.5387 26.54504 26.55115 26.55695 26.56239 26.56742 26.572 26.57607 26.57962 26.5826 26.58497 26.58668 26.58767 26.5879 26.58732 26.58588 26.58356 26.58033 26.57612 26.57094 26.56479 26.55765 26.54955 26.54054 26.53068 26.52002 26.50863 26.49652 26.48371 26.47021 26.45607 26.44133 26.42608 26.41038 26.39428 26.37775 26.36076 26.3432 26.325 26.30606 26.28638 26.26604 26.24518 26.22409 26.20304 26.1823 26.16206 26.14243 26.12346 26.1053 26.08815 26.07207 26.05694 26.04259 26.02851 26.01294 25.9961 25.97938 25.9629 25.94695 25.93044 25.91318 25.89468 25.8746 25.85254 25.82829 25.80177 25.77304 25.7423 25.70985 25.67609 25.64143 25.6063 25.5711 25.53624 25.50208 25.46895 25.4371 25.40673 25.37799 25.35094 25.32555 25.30171 25.27925 25.25796 25.23763 25.21813 25.1994 25.18151 25.16464 25.14909 25.13531 25.12374 25.11479 25.10843 25.10437 25.1022 25.10149 25.10185 25.10294 25.10443 25.10609 25.10781 25.10955 25.11141 25.11359 25.11625 25.11934 25.12259 25.1258 25.12902 25.13248 25.13649 25.14121 25.14671 25.15293 25.15983 25.16742 25.1757 25.18473 25.19454 25.20524 25.21697 25.22993 25.24436 25.26048 25.27849 25.29859 25.32099 25.34597 25.37372 25.40438 25.43784 25.47376 25.51165 25.55101 25.59142 25.63259 25.6743 25.71633 25.75831 25.79985 25.84077 25.88132 25.92164 25.96008 25.99154 26.01512 26.04967 26.08719 26.12838 26.17525 26.22769 26.28448 26.34423 26.40565 26.46766 26.52934 26.58997 26.64894 26.70584 26.76035 26.81225 26.86133 26.90739 26.95026 26.98984 27.02614 27.05927 27.08945 27.11696 27.14207 27.16507 27.1861 27.20528 27.22266 27.23831 27.25228 27.26464 27.27539 27.28458 27.29223 27.29841 27.30319 27.30673 27.30922 27.31078 27.31151 27.31138 27.31028 27.30806 27.30458 27.29972 27.29337 27.28548 27.27602 27.26495 27.25229 27.23803 27.22214 27.20465 27.1856 27.16503 27.14297 27.11947 27.09461 27.06837 27.04082 27.01198 26.98191 26.95071 26.91839 26.88504 26.85071 26.81551 26.77956 26.74305 26.70615 26.66906 26.63202 26.5953 26.55919 26.52391 26.48962 26.45633 26.42402 26.39262 26.36212 26.33256 26.304 26.27647 26.25002 26.22466 26.20047 26.17746
23.09307 23.22805 23.35913 23.48671 23.61059 23.72973 23.84119 23.94 24.02142 24.11341 24.20287 24.28806 24.36924 24.44689 24.52134 24.59276 24.66114 24.7264 24.78838 24.84697 24.90197 24.95317 25.00043 25.04449 25.08667 25.12824 25.16986 25.21172 25.25378 25.29593 25.33801 25.37998 25.42172 25.46314 25.50414 25.54456 25.58434 25.62343 25.66184 25.69953 25.73639 25.77215 25.80643 25.8388 25.86888 25.89642 25.92127 25.9435 25.96327 25.98084 25.99661 26.00985 26.02479 26.04067 26.05682 26.07292 26.0888 26.10441 26.11972 26.1347 26.14935 26.16368 26.17766 26.19129 26.20454 26.2174 26.2299 26.242 26.25374 26.26513 26.27615 26.28683 26.29717 26.30722 26.31699 26.3265 26.33578 26.34486 26.35374 26.36247 26.37103 26.37941 26.38764 26.39579 26.40383 26.41179 26.41962 26.42735 26.43495 26.44246 26.44984 26.4571 26.46423 26.47124 26.47812 26.48488 26.49151 26.49802 26.50438 26.51054 26.51653 26.5223 26.52781 26.533 26.53784 26.54226 26.54623 26.54972 26.55268 26.55509 26.55694 26.55814 26.55866 26.55843 26.55742 26.55559 26.55291 26.54932 26.5448 26.53932 26.53289 26.52546 26.51708 26.5078 26.49769 26.48681 26.47521 26.46288 26.44986 26.43618 26.42191 26.40712 26.39191 26.37638 26.36056 26.34439 26.32782 26.3107 26.29296 26.27451 26.2554 26.23572 26.21567 26.19552 26.17557 26.15604 26.13709 26.11872 26.10086 26.08368 26.06746 26.05245 26.03821 26.02485 26.01265 25.99719 25.97798 25.95796 25.93816 25.91875 25.89922 25.87919 25.85825 25.83599 25.81211 25.78637 25.75871 25.7292 25.69799 25.66534 25.63159 25.59707 25.56216 25.52726 25.49274 25.45897 25.42627 25.39493 25.36514 25.33705 25.31073 25.28615 25.26316 25.24155 25.22105 25.20144 25.18258 25.1644 25.14698 25.1305 25.11534 25.10199 25.09105 25.08311 25.07796 25.07505 25.07376 25.07359 25.07416 25.07518 25.07643 25.07771 25.07897 25.08024 25.0817 25.08371 25.08658 25.09019 25.0939 25.09728 25.10044 25.10376 25.10772 25.1126 25.11833 25.12476 25.13177 25.13932 25.14748 25.15629 25.1658 25.17614 25.18738 25.19976 25.21347 25.22878 25.2459 25.26502 25.28644 25.31042 25.33721 25.36693 25.39952 25.43464 25.47182 25.51057 25.55049 25.59134 25.633 25.67534 25.71822 25.76138 25.80451 25.84751 25.88995 25.93013 25.96536 25.99542 26.02526 26.05541 26.08921 26.13113 26.18015 26.23415 26.2913 26.35022 26.40986 26.46939 26.52811 26.58541 26.64083 26.69405 26.74484 26.79301 26.83842 26.8809 26.92036 26.95681 26.99027 27.02086 27.04883 27.07439 27.09774 27.11908 27.13853 27.15616 27.17202 27.18621 27.19878 27.20982 27.21935 27.22741 27.23406 27.23933 27.24332 27.24616 27.24799 27.24885 27.24877 27.24768 27.24549 27.24209 27.23736 27.2312 27.22355 27.21437 27.20364 27.19135 27.17748 27.16204 27.14501 27.12643 27.10629 27.08463 27.06148 27.03689 27.01085 26.9834 26.95458 26.92447 26.89312 26.86059 26.82694 26.79225 26.75665 26.72029 26.68334 26.64603 26.60863 26.57137 26.53456 26.49849 26.46338 26.42939 26.39654 26.36482 26.33418 26.30462 26.27617 26.24886 26.2227 26.19774 26.17402 26.15171 26.13096
23.04512 23.17818 23.3087 23.43751 23.56444 23.68819 23.80559 23.91218 24.00625 24.10155 24.19213 24.27776 24.35927 24.43739 24.5125 24.58477 24.65413 24.7205 24.78371 24.84363 24.90003 24.95244 25.00006 25.04243 25.0829 25.12327 25.16413 25.2055 25.24725 25.28918 25.33115 25.37304 25.41474 25.45613 25.49713 25.53758 25.5774 25.61656 25.65503 25.69275 25.72962 25.76538 25.79971 25.83218 25.86242 25.89021 25.91537 25.93793 25.95796 25.97556 25.99077 26.00374 26.01925 26.03513 26.05099 26.06672 26.08224 26.09749 26.11246 26.12713 26.14152 26.1556 26.16936 26.1828 26.19589 26.20861 26.22094 26.23288 26.24445 26.25563 26.26645 26.2769 26.28701 26.2968 26.30631 26.31556 26.32457 26.33336 26.34195 26.35033 26.3585 26.36649 26.37436 26.38211 26.38976 26.39727 26.40466 26.41192 26.41906 26.42607 26.43296 26.43972 26.44636 26.45287 26.45926 26.4655 26.4716 26.47759 26.48341 26.48906 26.49451 26.49974 26.5047 26.50935 26.51362 26.51749 26.52093 26.52388 26.52633 26.52826 26.52964 26.53039 26.53049 26.52987 26.5285 26.52632 26.52331 26.51942 26.51461 26.50886 26.50214 26.49443 26.48578 26.47624 26.46589 26.45478 26.44294 26.43037 26.41712 26.40324 26.38881 26.37395 26.35879 26.34344 26.3279 26.3121 26.29596 26.27932 26.26208 26.24421 26.22574 26.20682 26.18767 26.16859 26.14984 26.13165 26.11407 26.09694 26.08002 26.06336 26.04753 26.03319 26.01891 26.00478 25.99347 25.97543 25.95419 25.9318 25.90931 25.88702 25.86476 25.84217 25.81892 25.79466 25.76911 25.74206 25.71345 25.68332 25.65181 25.61914 25.58556 25.55134 25.51682 25.48235 25.44831 25.41509 25.383 25.35231 25.32324 25.29596 25.27054 25.24693 25.22497 25.20441 25.18493 25.16627 25.14828 25.13089 25.11417 25.0983 25.08363 25.07073 25.06032 25.05351 25.04977 25.04807 25.04756 25.04774 25.04833 25.0491 25.04994 25.05072 25.05141 25.05209 25.05301 25.05475 25.05791 25.06244 25.06678 25.07025 25.07311 25.07611 25.08001 25.08519 25.09137 25.09817 25.10535 25.1129 25.12096 25.1296 25.1389 25.14894 25.1598 25.17164 25.1847 25.19921 25.2154 25.23351 25.25383 25.27668 25.30234 25.33097 25.36251 25.39666 25.43297 25.47097 25.51032 25.55082 25.5924 25.63502 25.67854 25.72276 25.76738 25.81198 25.85604 25.89836 25.93741 25.97228 26.0025 26.02632 26.05225 26.09063 26.13727 26.18884 26.24332 26.29943 26.35632 26.41327 26.46968 26.52496 26.57863 26.63034 26.67982 26.72691 26.77146 26.81334 26.85248 26.88884 26.92243 26.9533 26.98161 27.00753 27.03123 27.05289 27.07263 27.09052 27.10662 27.12105 27.13387 27.14517 27.15501 27.16345 27.17051 27.17623 27.18067 27.18392 27.18605 27.18713 27.18719 27.1862 27.18409 27.18079 27.17621 27.17027 27.16287 27.15398 27.14358 27.13166 27.11818 27.10315 27.08655 27.06836 27.0486 27.02728 27.00442 26.98003 26.95412 26.92673 26.8979 26.86769 26.8362 26.80346 26.76955 26.73455 26.69859 26.66185 26.62456 26.58695 26.54932 26.51198 26.47522 26.43933 26.40451 26.37092 26.33862 26.30756 26.2778 26.24933 26.22219 26.19633 26.17172 26.14836 26.12629 26.10586 26.08739
22.99069 23.12204 23.25252 23.38337 23.51465 23.64517 23.77222 23.89168 23.99953 24.09517 24.1838 24.26804 24.34901 24.4272 24.50282 24.57584 24.64612 24.71351 24.77777 24.83876 24.89626 24.9497 24.99775 25.03728 25.076 25.11564 25.15621 25.19744 25.23911 25.281 25.32296 25.36484 25.40655 25.44799 25.48904 25.52956 25.56947 25.60873 25.6473 25.68511 25.72204 25.75786 25.79228 25.82493 25.85546 25.88361 25.90926 25.93233 25.95287 25.97099 25.9868 26.00085 26.01557 26.03059 26.04577 26.06096 26.07598 26.0908 26.10536 26.11967 26.13374 26.14754 26.16107 26.17432 26.18724 26.1998 26.21199 26.22379 26.23519 26.24619 26.25679 26.26702 26.2769 26.28645 26.29573 26.30472 26.31347 26.32198 26.33026 26.33826 26.34607 26.35372 26.36124 26.36861 26.37584 26.38293 26.38987 26.39666 26.40331 26.40981 26.41619 26.42243 26.42855 26.43454 26.4404 26.44612 26.45172 26.4572 26.46251 26.46766 26.47262 26.47736 26.48182 26.48595 26.48973 26.4931 26.49607 26.49856 26.50056 26.50207 26.50305 26.50342 26.50316 26.5022 26.50051 26.49804 26.49474 26.49057 26.48551 26.4795 26.47252 26.46455 26.45563 26.44584 26.43526 26.4239 26.41182 26.39899 26.38548 26.37135 26.35675 26.34181 26.32671 26.31152 26.29625 26.28083 26.26513 26.249 26.23233 26.21509 26.19735 26.17928 26.16112 26.14318 26.12574 26.10894 26.09281 26.077 26.06096 26.04438 26.0281 26.01444 25.99954 25.98367 25.96789 25.94802 25.92524 25.90107 25.87647 25.85184 25.82722 25.80239 25.77711 25.75108 25.72407 25.69592 25.66654 25.63598 25.60436 25.57182 25.53855 25.50478 25.4708 25.43693 25.40354 25.37103 25.33969 25.3098 25.28156 25.25517 25.23073 25.20821 25.18747 25.16816 25.14993 25.13244 25.11554 25.09919 25.08339 25.06838 25.0543 25.04188 25.03156 25.02593 25.02364 25.02301 25.02307 25.02339 25.0238 25.02423 25.02462 25.02491 25.0251 25.02526 25.02567 25.02707 25.03061 25.03669 25.04177 25.04503 25.04724 25.04963 25.05342 25.05922 25.06605 25.07335 25.0807 25.08821 25.09615 25.10467 25.11383 25.12368 25.13425 25.14566 25.1581 25.17183 25.18708 25.20414 25.22328 25.24487 25.26927 25.29665 25.32699 25.36003 25.39536 25.43253 25.47124 25.51132 25.55274 25.59547 25.63936 25.68416 25.72961 25.77526 25.82053 25.86475 25.90709 25.94676 25.9816 25.9994 26.01786 26.05529 26.10027 26.14929 26.20065 26.25345 26.30706 26.36097 26.41465 26.46756 26.5192 26.56919 26.61722 26.66308 26.70663 26.74776 26.7864 26.82248 26.85601 26.88699 26.91553 26.94172 26.96572 26.98766 27.00768 27.02584 27.04222 27.05693 27.07001 27.08158 27.09172 27.10049 27.10794 27.11408 27.11894 27.12259 27.12507 27.12645 27.12673 27.12591 27.12395 27.12081 27.11643 27.1107 27.10357 27.09498 27.08492 27.07333 27.06023 27.04558 27.02936 27.01152 26.9921 26.97105 26.94841 26.92417 26.89835 26.87098 26.84211 26.8118 26.78015 26.7472 26.71305 26.67776 26.64151 26.60449 26.56695 26.52918 26.49148 26.45422 26.41767 26.38212 26.34774 26.31466 26.28296 26.25266 26.22387 26.19665 26.17102 26.14687 26.124 26.1024 26.08195 26.06329 26.04652
22.93007 23.0604 23.19163 23.32524 23.4615 23.5993 23.73645 23.86904 23.98988 24.08459 24.17165 24.25525 24.33625 24.41491 24.49128 24.56521 24.63647 24.7048 24.76989 24.83148 24.88929 24.94276 24.99047 25.02674 25.06524 25.10537 25.14633 25.18779 25.22958 25.27155 25.31356 25.3555 25.39726 25.43877 25.4799 25.52053 25.56057 25.59998 25.63869 25.67663 25.71365 25.74958 25.78417 25.81707 25.848 25.87667 25.90294 25.92671 25.94803 25.96707 25.98402 25.99921 26.01266 26.02656 26.04096 26.05553 26.07001 26.08431 26.09841 26.11229 26.12601 26.13952 26.15279 26.16583 26.17859 26.19101 26.20306 26.21472 26.22595 26.23676 26.24716 26.25718 26.26683 26.27616 26.2852 26.29396 26.30245 26.31067 26.31858 26.32626 26.33376 26.34108 26.34824 26.35524 26.36206 26.3687 26.37518 26.38148 26.38762 26.39361 26.39946 26.40516 26.41074 26.41619 26.42152 26.42673 26.43182 26.43679 26.44164 26.44631 26.45081 26.45508 26.4591 26.46278 26.46612 26.46906 26.47161 26.47372 26.47536 26.47652 26.47715 26.47719 26.47662 26.47537 26.47342 26.4707 26.46715 26.46275 26.45745 26.45122 26.44397 26.43577 26.4266 26.41659 26.40577 26.39419 26.38184 26.36874 26.35495 26.34055 26.32575 26.31071 26.29564 26.2806 26.26561 26.25058 26.23535 26.21976 26.20369 26.18715 26.17019 26.15302 26.13589 26.1191 26.10293 26.08756 26.07299 26.05875 26.04391 26.02731 26.00937 25.99608 25.97873 25.95973 25.93971 25.91723 25.8926 25.8667 25.84025 25.81367 25.78706 25.76035 25.73332 25.7058 25.67757 25.64852 25.6186 25.5878 25.55622 25.52395 25.49113 25.45797 25.42469 25.3916 25.35905 25.32742 25.29698 25.26799 25.24065 25.21517 25.19173 25.1704 25.15105 25.13321 25.11641 25.10029 25.08467 25.06956 25.0549 25.04109 25.02776 25.01625 25.0052 25.00053 24.99921 24.99909 24.99928 24.9995 24.99969 24.99983 24.99993 24.99997 24.99995 24.99995 25.0002 25.00149 25.00547 25.01386 25.01926 25.02175 25.02294 25.02449 25.02817 25.03509 25.04274 25.05055 25.05796 25.06524 25.07301 25.08144 25.09058 25.10039 25.1108 25.12187 25.13376 25.14673 25.16104 25.17696 25.19485 25.21509 25.23808 25.26405 25.29306 25.32491 25.35918 25.39547 25.43348 25.47306 25.51418 25.55682 25.6008 25.64585 25.69156 25.73767 25.78359 25.8287 25.87228 25.91299 25.94792 25.97248 25.99675 26.02961 26.07073 26.11595 26.1633 26.21204 26.26181 26.31223 26.36285 26.41311 26.4625 26.51059 26.55701 26.60153 26.64398 26.68424 26.72223 26.75791 26.79123 26.82217 26.8508 26.87718 26.90139 26.9236 26.94388 26.96231 26.97897 26.99395 27.00733 27.01919 27.02962 27.03871 27.0465 27.05302 27.05828 27.06232 27.06518 27.0669 27.06746 27.06689 27.06515 27.06221 27.05803 27.05255 27.04569 27.03741 27.02768 27.01646 27.00371 26.98942 26.97353 26.95602 26.93686 26.91604 26.89357 26.86946 26.8437 26.81632 26.78739 26.75697 26.72515 26.69201 26.65762 26.6221 26.58562 26.54841 26.51076 26.47299 26.43544 26.39845 26.36233 26.32732 26.29355 26.26111 26.23008 26.20059 26.17285 26.14708 26.12323 26.10109 26.0802 26.06068 26.04174 26.02518 26.00864
22.86497 22.99533 23.12807 23.26483 23.40574 23.54916 23.6931 23.83396 23.96305 24.05945 24.15013 24.23646 24.31931 24.39943 24.47713 24.55233 24.62476 24.69408 24.75988 24.8217 24.87896 24.93062 24.97491 25.01073 25.05217 25.09381 25.1354 25.17713 25.21906 25.2611 25.30318 25.34517 25.387 25.42857 25.46978 25.51053 25.55074 25.59032 25.6292 25.6673 25.70446 25.74055 25.77535 25.8086 25.84002 25.86932 25.89632 25.92092 25.94309 25.96299 25.98079 25.99658 26.00883 26.02223 26.03625 26.05034 26.06427 26.078 26.09156 26.10498 26.11829 26.13148 26.14451 26.15734 26.16993 26.18221 26.19413 26.20563 26.2167 26.22733 26.23754 26.24734 26.25679 26.2659 26.27472 26.28323 26.29144 26.2993 26.3069 26.31429 26.32148 26.32848 26.3353 26.34192 26.34833 26.35452 26.36052 26.36632 26.37193 26.37739 26.38269 26.38783 26.39286 26.39778 26.40257 26.40726 26.41184 26.41633 26.42072 26.42498 26.42905 26.43291 26.4365 26.43979 26.44275 26.44534 26.44755 26.44934 26.45068 26.45154 26.45189 26.45167 26.45084 26.44936 26.44717 26.44424 26.44049 26.43588 26.43038 26.42393 26.41648 26.40804 26.39867 26.38845 26.37742 26.36561 26.353 26.33962 26.32551 26.31083 26.2958 26.28066 26.26559 26.2507 26.236 26.22134 26.20661 26.19159 26.17618 26.16037 26.14422 26.12795 26.11184 26.09615 26.08113 26.06703 26.05403 26.04157 26.02872 26.01351 25.99593 25.97686 25.95568 25.93309 25.90936 25.88406 25.85731 25.82961 25.80145 25.77317 25.74489 25.71661 25.68816 25.65942 25.63023 25.60051 25.57021 25.53935 25.50797 25.47611 25.44389 25.41147 25.37906 25.34693 25.31544 25.28487 25.2555 25.2275 25.20107 25.17646 25.15397 25.13388 25.11608 25.09993 25.08475 25.07014 25.05587 25.04221 25.02873 25.01672 25.00405 24.99496 24.98434 24.97813 24.97541 24.9745 24.97437 24.9745 24.97472 24.97495 24.97514 24.9753 24.97553 24.97602 24.97721 24.98003 24.98577 24.99441 24.99844 24.99972 25.00013 25.0012 25.00491 25.01365 25.02179 25.03003 25.03712 25.04384 25.05143 25.05984 25.06913 25.07907 25.08948 25.1003 25.11168 25.1239 25.13724 25.152 25.16857 25.18737 25.20882 25.23327 25.26082 25.29136 25.3245 25.35986 25.39712 25.43615 25.47687 25.51923 25.56306 25.608 25.65367 25.6997 25.74572 25.79112 25.83515 25.87664 25.91367 25.94493 25.97486 26.00751 26.04647 26.08773 26.13041 26.17451 26.22003 26.26668 26.31401 26.36145 26.40843 26.45448 26.49918 26.54227 26.58353 26.62283 26.6601 26.69526 26.72825 26.75904 26.78765 26.81411 26.8385 26.8609 26.8814 26.90009 26.91702 26.93228 26.94595 26.95809 26.96883 26.97821 26.98633 26.99318 26.99881 27.00323 27.00647 27.00854 27.00944 27.00916 27.00769 27.005 27.00106 26.99584 26.98927 26.9813 26.9719 26.96103 26.94863 26.93467 26.9191 26.90186 26.88292 26.86229 26.83998 26.81596 26.79025 26.76287 26.73387 26.70335 26.67139 26.63805 26.60347 26.56778 26.53117 26.49391 26.4563 26.41874 26.38155 26.34511 26.30968 26.27545 26.24252 26.21089 26.18064 26.15196 26.12532 26.10122 26.0794 26.05969 26.04086 26.02414 26.00641 25.9937 25.97836
22.79826 22.92978 23.06469 23.20459 23.34955 23.49624 23.64222 23.78359 23.907 24.01871 24.1206 24.21231 24.29818 24.38051 24.46011 24.53701 24.61092 24.68143 24.74809 24.81036 24.86764 24.91912 24.9639 25.00272 25.0429 25.08347 25.12453 25.16605 25.20791 25.24994 25.29201 25.33401 25.37586 25.41747 25.45875 25.49962 25.53998 25.57975 25.61884 25.65712 25.69447 25.73076 25.76585 25.79952 25.8315 25.86152 25.88935 25.91481 25.9378 25.95829 25.97622 25.99131 26.00352 26.01772 26.03179 26.04544 26.05876 26.07185 26.08481 26.09771 26.1106 26.12345 26.13622 26.14885 26.16128 26.17341 26.18518 26.19651 26.20742 26.21787 26.22789 26.2375 26.24675 26.25566 26.26423 26.27249 26.28035 26.28791 26.29523 26.30233 26.30922 26.3159 26.32236 26.32858 26.33456 26.34031 26.34582 26.35109 26.35617 26.36108 26.36581 26.3704 26.37487 26.37922 26.38347 26.38765 26.39175 26.3958 26.39977 26.40362 26.4073 26.41078 26.41401 26.41696 26.41959 26.4219 26.42384 26.42538 26.42648 26.42711 26.42722 26.42678 26.42575 26.4241 26.42173 26.41862 26.4147 26.40992 26.40425 26.39761 26.38997 26.38136 26.37182 26.36142 26.35021 26.33818 26.32532 26.31165 26.29723 26.28225 26.26698 26.25172 26.23664 26.22188 26.20743 26.19318 26.17895 26.16456 26.14983 26.13478 26.11944 26.10404 26.08889 26.07424 26.06012 26.04685 26.03506 26.02383 26.01274 25.99737 25.97702 25.95421 25.92961 25.90373 25.87683 25.84888 25.82001 25.79053 25.76077 25.73101 25.70134 25.67176 25.64217 25.61248 25.58258 25.55242 25.52195 25.49118 25.46012 25.42881 25.39734 25.36583 25.33446 25.3035 25.27326 25.244 25.21587 25.18897 25.16345 25.13958 25.1179 25.09901 25.08301 25.06881 25.05534 25.04235 25.02928 25.01741 25.00462 24.99515 24.98291 24.9725 24.96261 24.95558 24.95152 24.94954 24.94879 24.94871 24.94898 24.9494 24.94988 24.95041 24.95113 24.9523 24.95437 24.95802 24.96369 24.97044 24.97464 24.97683 24.97851 24.9813 24.98687 24.99591 25.00306 25.01174 25.01796 25.02365 25.03127 25.03977 25.04942 25.05975 25.0703 25.08094 25.09184 25.10329 25.11563 25.1292 25.14438 25.16164 25.18148 25.20431 25.2303 25.25941 25.29136 25.32574 25.36221 25.40062 25.44085 25.48281 25.52628 25.57087 25.6162 25.6619 25.70768 25.75315 25.79767 25.84046 25.88063 25.91801 25.95461 25.99207 26.02694 26.06337 26.10067 26.1398 26.18092 26.22376 26.2678 26.3124 26.35693 26.40087 26.44378 26.48533 26.52533 26.56362 26.60008 26.63463 26.6672 26.69774 26.72627 26.75275 26.77723 26.79979 26.82047 26.83935 26.85652 26.87204 26.88598 26.89842 26.90944 26.91912 26.92752 26.93468 26.94065 26.94542 26.94902 26.95145 26.9527 26.95275 26.95159 26.94919 26.94553 26.94058 26.93431 26.92665 26.91759 26.90706 26.89501 26.88136 26.86605 26.84905 26.83034 26.80988 26.7877 26.7638 26.73814 26.71077 26.68172 26.6511 26.619 26.58551 26.55078 26.515 26.47839 26.44121 26.40386 26.36672 26.33017 26.29455 26.26013 26.22701 26.1952 26.16463 26.13535 26.10755 26.08199 26.05985 26.04018 26.02354 26.00622 25.99344 25.97676 25.96225 25.94741
22.73307 22.86683 23.00435 23.14695 23.29594 23.44547 23.5939 23.74084 23.87555 23.99573 24.095 24.18646 24.27394 24.35849 24.44035 24.51933 24.59505 24.66702 24.73485 24.79802 24.85615 24.90888 24.95604 24.99803 25.03522 25.07361 25.11365 25.15473 25.19638 25.23827 25.28023 25.32216 25.36396 25.40555 25.44686 25.48781 25.52832 25.56828 25.60756 25.64605 25.68362 25.72017 25.75561 25.78977 25.8224 25.85322 25.88193 25.90833 25.93223 25.95353 25.97208 25.98778 26.0011 26.01493 26.02824 26.04102 26.05349 26.06581 26.07811 26.09046 26.1029 26.1154 26.12792 26.14035 26.1526 26.16458 26.17619 26.18737 26.1981 26.20837 26.21821 26.22763 26.23669 26.24538 26.25371 26.26162 26.2692 26.2765 26.28354 26.29034 26.29692 26.30327 26.30936 26.31519 26.32072 26.32599 26.33099 26.33574 26.34026 26.3446 26.34876 26.35277 26.35666 26.36045 26.36417 26.36786 26.3715 26.37513 26.37869 26.38216 26.3855 26.38864 26.39156 26.39422 26.39662 26.3987 26.40044 26.40179 26.40271 26.40318 26.40312 26.40251 26.40133 26.39953 26.39703 26.39379 26.38974 26.38482 26.379 26.37221 26.36445 26.3557 26.34602 26.33548 26.32412 26.31191 26.29882 26.28487 26.27015 26.25489 26.23939 26.22398 26.20889 26.19423 26.18002 26.16614 26.15244 26.13869 26.12471 26.11045 26.0959 26.08131 26.06712 26.05357 26.04018 26.02697 26.01587 26.00425 25.99386 25.97574 25.95305 25.92759 25.90028 25.87171 25.84222 25.81197 25.78114 25.75001 25.71883 25.68778 25.65695 25.62634 25.59588 25.56549 25.53511 25.50472 25.47426 25.44374 25.41316 25.38255 25.35196 25.32149 25.29133 25.26175 25.23301 25.2053 25.17865 25.15305 25.12848 25.10519 25.08401 25.0662 25.05235 25.04042 25.02851 25.01733 25.00481 24.99542 24.98308 24.97201 24.96021 24.9493 24.93951 24.93193 24.92685 24.92388 24.92247 24.92208 24.92233 24.92294 24.92375 24.92473 24.92597 24.92773 24.93036 24.93424 24.9394 24.94505 24.94957 24.95303 24.95641 24.96093 24.96763 24.97648 24.98534 24.99476 24.99968 25.00427 25.01268 25.02112 25.03141 25.04239 25.0532 25.06367 25.07407 25.08476 25.09608 25.10839 25.12212 25.13777 25.15593 25.17707 25.20144 25.22907 25.25971 25.29303 25.32869 25.36644 25.40613 25.44757 25.49054 25.53463 25.57945 25.62468 25.6701 25.71556 25.76065 25.80495 25.84807 25.88998 25.9311 25.9709 26.00637 26.0402 26.07228 26.1067 26.14373 26.18304 26.22401 26.26591 26.30803 26.34982 26.39085 26.43082 26.46948 26.50668 26.54226 26.57614 26.60823 26.63846 26.66681 26.69324 26.71776 26.7404 26.76122 26.78027 26.79763 26.81337 26.82754 26.84025 26.85156 26.86152 26.87019 26.87764 26.8839 26.889 26.89293 26.89572 26.8973 26.89768 26.89684 26.89476 26.89141 26.88677 26.88082 26.8735 26.86475 26.85454 26.8428 26.82944 26.8144 26.79762 26.77911 26.75884 26.73681 26.71302 26.68746 26.66011 26.63103 26.60033 26.56812 26.53452 26.49974 26.46397 26.4275 26.39061 26.35372 26.31724 26.28157 26.24708 26.21401 26.18236 26.15207 26.12299 26.09511 26.06847 26.04378 26.02425 26.00624 25.99364 25.97733 25.96267 25.94668 25.93117 25.91572
22.67179 22.8087 22.94946 23.09392 23.24767 23.40171 23.55446 23.70396 23.84459 23.97072 24.06453 24.15635 24.24626 24.33363 24.41819 24.49959 24.57739 24.6511 24.72032 24.78468 24.84393 24.89797 24.94688 24.99055 25.02476 25.06236 25.10224 25.14318 25.18461 25.22627 25.26801 25.30975 25.35139 25.39286 25.43413 25.47512 25.51572 25.55584 25.59531 25.63401 25.67182 25.70868 25.74454 25.77926 25.8126 25.84426 25.87392 25.90134 25.92631 25.94873 25.96852 25.98561 26.00021 26.01323 26.02523 26.03681 26.04827 26.05976 26.07137 26.08316 26.09517 26.10734 26.1196 26.13183 26.14391 26.15572 26.16716 26.17818 26.18873 26.19884 26.20851 26.21775 26.2266 26.23507 26.24305 26.25068 26.25801 26.26504 26.27179 26.2783 26.28456 26.29055 26.29626 26.30166 26.30672 26.31149 26.31596 26.32016 26.32413 26.32789 26.33146 26.33487 26.33818 26.34142 26.34462 26.34781 26.35102 26.35423 26.35743 26.36055 26.36358 26.36644 26.36911 26.37156 26.37378 26.37572 26.37733 26.37856 26.37936 26.3797 26.37952 26.37881 26.37752 26.37562 26.37303 26.3697 26.36556 26.36056 26.35463 26.34775 26.33988 26.33104 26.32128 26.31065 26.29917 26.28682 26.27353 26.25934 26.24435 26.22884 26.21313 26.19758 26.18246 26.16788 26.15387 26.14033 26.12715 26.11409 26.10094 26.08753 26.07374 26.05986 26.04658 26.03466 26.02239 26.00837 25.99774 25.98428 25.96937 25.94918 25.92473 25.89735 25.86798 25.83727 25.80568 25.77352 25.74105 25.7085 25.67608 25.64395 25.6122 25.5808 25.54971 25.51888 25.48827 25.45786 25.42759 25.39749 25.36754 25.33773 25.30813 25.27884 25.25004 25.22201 25.195 25.16912 25.1443 25.12031 25.09691 25.0742 25.05312 25.03598 25.02478 25.01542 25.00426 24.99537 24.98314 24.972 24.95988 24.94799 24.93612 24.92494 24.91498 24.90692 24.90103 24.89724 24.89518 24.89442 24.89457 24.89529 24.89637 24.89775 24.89944 24.90164 24.90459 24.90851 24.91333 24.91856 24.92346 24.92806 24.9329 24.93877 24.94621 24.95512 24.96446 24.97355 24.98042 24.98728 24.99623 25.00375 25.01502 25.02687 25.03797 25.04818 25.05806 25.06802 25.07832 25.08934 25.10154 25.11553 25.13196 25.15139 25.17415 25.20029 25.22961 25.2618 25.29655 25.33358 25.37266 25.41353 25.45592 25.49941 25.54365 25.58834 25.63338 25.67873 25.7243 25.76994 25.81539 25.86055 25.90535 25.94893 25.98893 26.01836 26.04402 26.07452 26.10806 26.14433 26.18262 26.22206 26.26186 26.3015 26.34059 26.37885 26.41608 26.45208 26.48672 26.51988 26.55142 26.58128 26.6094 26.63571 26.66021 26.6829 26.70381 26.72297 26.74046 26.75636 26.77074 26.78367 26.79521 26.80544 26.81438 26.8221 26.82864 26.83403 26.83828 26.84138 26.8433 26.84401 26.84348 26.84173 26.8387 26.83439 26.82876 26.82176 26.81334 26.80344 26.79201 26.77893 26.76413 26.74758 26.72929 26.70921 26.68737 26.66374 26.63829 26.61099 26.5819 26.55115 26.51886 26.48524 26.45049 26.41489 26.37873 26.34234 26.30613 26.27053 26.23598 26.20288 26.17148 26.14171 26.11338 26.08638 26.0608 26.03645 26.01239 25.99651 25.97959 25.96486 25.94883 25.93291 25.91647 25.90003 25.88358
22.61683 22.76068 22.90648 23.05516 23.20872 23.36392 23.51776 23.66703 23.80603 23.9274 24.0234 24.122 24.21614 24.30678 24.39426 24.47824 24.55824 24.6338 24.70456 24.7702 24.83047 24.88515 24.93383 24.97558 25.00989 25.05006 25.09083 25.13175 25.17284 25.21409 25.25544 25.29683 25.33819 25.37946 25.4206 25.46154 25.50219 25.5424 25.58201 25.62091 25.659 25.69623 25.73256 25.76788 25.80195 25.83445 25.86506 25.89351 25.91964 25.94334 25.9646 25.98333 25.99921 26.0112 26.02182 26.03226 26.04281 26.05355 26.06451 26.07577 26.08735 26.09922 26.11123 26.12327 26.13518 26.14683 26.1581 26.16894 26.17933 26.18926 26.19876 26.20783 26.21647 26.22462 26.23234 26.23971 26.24676 26.25351 26.25997 26.26617 26.27209 26.2777 26.28298 26.28791 26.29248 26.29673 26.30066 26.30431 26.3077 26.31088 26.31384 26.31664 26.31935 26.32203 26.32471 26.32744 26.33022 26.33307 26.33591 26.33874 26.34149 26.34414 26.34664 26.34896 26.35108 26.35295 26.3545 26.35565 26.35638 26.35663 26.35638 26.3556 26.35425 26.3523 26.34967 26.3463 26.34212 26.33706 26.3311 26.32417 26.31627 26.3074 26.2976 26.28693 26.27537 26.2629 26.24947 26.23508 26.2199 26.20419 26.18834 26.17269 26.15754 26.143 26.12912 26.11587 26.10318 26.09085 26.07864 26.06622 26.05328 26.03995 26.0272 26.01777 26.0084 25.99549 25.97979 25.96223 25.94278 25.91981 25.89338 25.86426 25.83319 25.80077 25.76752 25.73384 25.70001 25.66629 25.63287 25.59989 25.56744 25.5355 25.50403 25.47301 25.44238 25.41216 25.3823 25.35278 25.3236 25.29472 25.26619 25.23814 25.21079 25.18443 25.15932 25.13556 25.11296 25.09111 25.06951 25.04787 25.02683 25.00984 25.00119 24.99424 24.98276 24.9718 24.95958 24.94743 24.935 24.92268 24.91059 24.89919 24.88897 24.88044 24.87391 24.8694 24.86673 24.86554 24.86549 24.86621 24.86746 24.86911 24.87114 24.87365 24.87683 24.88081 24.88553 24.89073 24.89609 24.90161 24.9076 24.9145 24.92258 24.93173 24.94136 24.95085 24.95953 24.96837 24.97816 24.98807 25.00013 25.01278 25.02407 25.03381 25.04328 25.05265 25.06203 25.07176 25.08237 25.09459 25.10926 25.12704 25.14828 25.17301 25.20103 25.23207 25.26581 25.30202 25.34042 25.38065 25.42242 25.46527 25.50887 25.55301 25.59763 25.64283 25.68867 25.73516 25.78213 25.82921 25.8759 25.92086 25.96136 25.99289 26.01464 26.04386 26.07429 26.10796 26.14397 26.18115 26.2187 26.25615 26.2932 26.32963 26.36527 26.39998 26.43358 26.46592 26.49686 26.52628 26.55412 26.58026 26.60468 26.62737 26.6483 26.66753 26.6851 26.70112 26.71564 26.72876 26.74052 26.75097 26.76014 26.7681 26.7749 26.78056 26.78508 26.78847 26.79068 26.79171 26.7915 26.79008 26.78738 26.78341 26.7781 26.77143 26.76333 26.75374 26.74259 26.72977 26.71522 26.69892 26.68087 26.66105 26.63944 26.61601 26.59071 26.56348 26.53441 26.50364 26.47136 26.43779 26.40322 26.36797 26.33234 26.29664 26.2613 26.22675 26.19347 26.16197 26.13255 26.10505 26.07904 26.05452 26.03232 26.01349 25.9939 25.97435 25.95564 25.93833 25.92103 25.90377 25.88629 25.86872 25.85106
22.57368 22.72171 22.87108 23.02251 23.17651 23.33155 23.4847 23.63272 23.77094 23.89421 23.99944 24.09389 24.18713 24.27944 24.36937 24.45576 24.53788 24.61527 24.68759 24.75461 24.81611 24.87189 24.92163 24.9649 25.00262 25.04171 25.08115 25.121 25.16123 25.20178 25.24254 25.28343 25.32439 25.36535 25.40626 25.44706 25.48766 25.52791 25.56763 25.6067 25.64506 25.68269 25.71952 25.75545 25.79022 25.82353 25.85504 25.88447 25.91169 25.93658 25.95914 25.97919 25.99614 26.00728 26.01698 26.02687 26.03692 26.04708 26.05747 26.06822 26.07942 26.091 26.10281 26.11467 26.12641 26.13788 26.14898 26.15965 26.16988 26.17965 26.18899 26.19788 26.20621 26.2141 26.22158 26.22867 26.23543 26.24187 26.24804 26.25389 26.25944 26.26463 26.26945 26.27388 26.27794 26.28165 26.28503 26.28811 26.29091 26.29347 26.29581 26.29799 26.30009 26.3022 26.30438 26.30665 26.30904 26.31154 26.3141 26.31667 26.31921 26.32172 26.32412 26.3264 26.3285 26.33035 26.33189 26.33303 26.33372 26.33393 26.33365 26.33286 26.3315 26.32956 26.32694 26.32357 26.31939 26.31436 26.30841 26.30149 26.29358 26.28472 26.27494 26.26427 26.25268 26.24015 26.22663 26.21214 26.19686 26.18107 26.16516 26.14947 26.1343 26.11976 26.10593 26.09284 26.08057 26.06902 26.05789 26.04676 26.03501 26.02235 26.00889 26.00111 25.99309 25.97737 25.95829 25.93717 25.91405 25.8883 25.85983 25.82902 25.79643 25.76259 25.72803 25.69314 25.65825 25.62362 25.58944 25.55586 25.52294 25.4907 25.45911 25.42812 25.39775 25.36796 25.33871 25.30996 25.28167 25.25381 25.22641 25.1996 25.17365 25.14892 25.12578 25.10434 25.08433 25.06528 25.04644 25.02743 25.00795 24.99443 24.98219 24.97149 24.95922 24.94678 24.93394 24.92111 24.90829 24.89566 24.8834 24.87184 24.86138 24.85245 24.84536 24.84023 24.83698 24.83533 24.83498 24.83558 24.83685 24.83865 24.84089 24.84364 24.84701 24.85111 24.85592 24.86132 24.86718 24.87346 24.88037 24.88813 24.89685 24.90642 24.91653 24.92678 24.93697 24.94754 24.95888 24.97104 24.98462 24.9986 25.01037 25.01949 25.02898 25.03821 25.04684 25.05534 25.06427 25.07462 25.0875 25.10376 25.1237 25.14721 25.17404 25.2039 25.23655 25.27179 25.30937 25.34893 25.39003 25.43223 25.4752 25.51877 25.56295 25.60791 25.65381 25.70067 25.74837 25.79635 25.8438 25.88925 25.93052 25.96517 25.99332 26.0185 26.0434 26.0746 26.10865 26.14367 26.17889 26.21401 26.24887 26.28332 26.31724 26.3505 26.38294 26.41438 26.44463 26.47357 26.50107 26.52699 26.55127 26.57388 26.59476 26.61399 26.6316 26.64769 26.66232 26.67557 26.68749 26.69812 26.7075 26.71568 26.7227 26.7286 26.73336 26.737 26.73949 26.74079 26.7409 26.73979 26.73742 26.73378 26.72882 26.72247 26.71467 26.70538 26.6945 26.68196 26.66768 26.65165 26.6339 26.61438 26.59306 26.56987 26.54475 26.51764 26.48863 26.4579 26.4257 26.39232 26.3581 26.3234 26.28851 26.25374 26.21943 26.18602 26.15406 26.12421 26.09701 26.07221 26.04862 26.02608 26.00602 25.9919 25.97228 25.95168 25.93158 25.91235 25.89346 25.87471 25.85593 25.8371 25.81819
22.53559 22.68821 22.84087 22.99428 23.14862 23.30284 23.45467 23.60114 23.73891 23.86465 23.97597 24.06351 24.15681 24.25152 24.34396 24.43253 24.51649 24.5955 24.66929 24.73778 24.8008 24.8583 24.91032 24.95685 24.99828 25.03482 25.072 25.11036 25.14953 25.18922 25.22925 25.26951 25.30994 25.35049 25.39108 25.43166 25.47212 25.5123 25.55207 25.59128 25.62992 25.66792 25.70526 25.74176 25.77719 25.8112 25.84349 25.87383 25.90203 25.92796 25.95141 25.97194 25.98869 26.00057 26.01048 26.02076 26.03075 26.04046 26.05025 26.06049 26.07133 26.08266 26.0943 26.10601 26.1176 26.12891 26.13984 26.15034 26.16041 26.17002 26.17918 26.18777 26.19587 26.2035 26.21071 26.21752 26.22396 26.2301 26.23591 26.24139 26.24653 26.25126 26.25558 26.25949 26.26302 26.26618 26.26899 26.2715 26.27369 26.27563 26.27731 26.27885 26.28033 26.28186 26.28352 26.28535 26.28738 26.28956 26.29188 26.29427 26.29671 26.29915 26.30157 26.3039 26.30605 26.30796 26.30953 26.31068 26.31137 26.31159 26.31133 26.31056 26.30926 26.30735 26.30479 26.30148 26.29735 26.29239 26.28649 26.27963 26.27178 26.26297 26.25323 26.24258 26.23101 26.21849 26.20495 26.19048 26.17524 26.15952 26.14368 26.12806 26.11292 26.09837 26.08447 26.07137 26.05936 26.04856 26.03859 26.02908 26.01907 26.0089 25.99681 25.98468 25.97174 25.95396 25.93266 25.90892 25.88301 25.85487 25.82448 25.79209 25.75815 25.72312 25.68748 25.65164 25.61595 25.58065 25.54596 25.512 25.47887 25.44658 25.41512 25.38448 25.35462 25.32552 25.29711 25.26932 25.24208 25.21531 25.18903 25.16336 25.13862 25.11532 25.09402 25.07493 25.05756 25.04165 25.02605 25.01139 24.99485 24.97767 24.9619 24.94763 24.93356 24.91973 24.90605 24.89261 24.87945 24.86663 24.85429 24.84266 24.83205 24.82285 24.81535 24.80969 24.80589 24.80375 24.80301 24.80335 24.80451 24.80631 24.80867 24.8116 24.81517 24.81945 24.82447 24.83019 24.83654 24.84353 24.85123 24.85974 24.86912 24.87928 24.89003 24.90117 24.91265 24.92472 24.93762 24.95149 24.9664 24.98157 24.99514 25.00385 25.01449 25.02426 25.03237 25.03975 25.04697 25.05529 25.06636 25.08137 25.10036 25.12294 25.14871 25.17742 25.20887 25.24299 25.27958 25.31832 25.3587 25.40026 25.44261 25.4856 25.52931 25.57396 25.61971 25.66661 25.71449 25.76278 25.81045 25.85616 25.89825 25.93523 25.96677 25.99349 26.01431 26.04506 26.07742 26.11004 26.14267 26.17525 26.20773 26.24002 26.27204 26.30371 26.33488 26.36532 26.39482 26.42322 26.45031 26.47595 26.50001 26.52245 26.54323 26.56241 26.58 26.59611 26.61079 26.62412 26.63615 26.64692 26.65646 26.66481 26.67203 26.67813 26.68312 26.68698 26.6897 26.69126 26.69164 26.69083 26.68879 26.68547 26.68082 26.67478 26.66729 26.65828 26.64769 26.63544 26.62148 26.60579 26.58839 26.56923 26.54824 26.52534 26.50044 26.47349 26.4446 26.414 26.382 26.34895 26.31527 26.28134 26.24744 26.21384 26.18077 26.14854 26.11778 26.08945 26.06456 26.04299 26.02203 26.00112 25.98252 25.9664 25.94746 25.92699 25.90621 25.88569 25.86539 25.84523 25.82511 25.805 25.78485
22.4987 22.65633 22.81229 22.96747 23.12211 23.2755 23.42589 23.57058 23.70651 23.82992 23.93669 24.02478 24.12553 24.22429 24.31886 24.40884 24.49404 24.57425 24.64934 24.71923 24.78385 24.84324 24.89752 24.94681 24.99079 25.02491 25.06118 25.0989 25.13732 25.1762 25.21544 25.25497 25.29478 25.33482 25.37499 25.41525 25.45548 25.49554 25.53528 25.5746 25.61347 25.65183 25.6896 25.72659 25.76254 25.79714 25.83013 25.86129 25.89046 25.91743 25.94188 25.96328 25.98081 25.99391 26.00399 26.01509 26.02491 26.03387 26.04284 26.05251 26.06301 26.07416 26.08569 26.09729 26.10876 26.11991 26.13069 26.14104 26.15093 26.16037 26.16922 26.17758 26.18543 26.19279 26.19969 26.20617 26.21228 26.21806 26.2235 26.22858 26.23326 26.2375 26.2413 26.24467 26.24765 26.25026 26.2525 26.25442 26.25598 26.25726 26.25826 26.25912 26.25995 26.2609 26.26205 26.26346 26.26516 26.26709 26.26924 26.27155 26.27398 26.27649 26.27901 26.28146 26.28374 26.28575 26.28738 26.28857 26.2893 26.28954 26.28934 26.28865 26.28744 26.28565 26.28318 26.27997 26.27594 26.27108 26.26529 26.25852 26.25076 26.24202 26.23236 26.22176 26.21022 26.19776 26.18432 26.17001 26.15498 26.13953 26.12396 26.10857 26.09358 26.07903 26.06501 26.05168 26.03964 26.02949 26.02042 26.01238 26.00304 25.99447 25.9805 25.9649 25.94773 25.92733 25.9039 25.87798 25.84987 25.81971 25.78759 25.75378 25.71863 25.68259 25.6461 25.60953 25.57326 25.53751 25.50253 25.46844 25.43536 25.4033 25.37227 25.34226 25.31322 25.28509 25.25777 25.23115 25.2051 25.17948 25.15426 25.12957 25.10574 25.08348 25.06364 25.04669 25.0314 25.01829 25.00418 24.99245 24.97462 24.95566 24.93763 24.92095 24.90514 24.89005 24.87557 24.86163 24.84821 24.83531 24.823 24.81144 24.80085 24.79154 24.78376 24.7777 24.77341 24.77077 24.76958 24.76958 24.77052 24.77223 24.77461 24.77765 24.7814 24.78592 24.79123 24.79732 24.80417 24.81179 24.82018 24.82941 24.83946 24.85028 24.86178 24.87383 24.88645 24.89978 24.91396 24.92904 24.94488 24.96076 24.97537 24.98745 24.99967 25.01041 25.01803 25.02472 25.03029 25.03643 25.04568 25.05991 25.07843 25.10039 25.12524 25.15277 25.18294 25.21576 25.25115 25.28887 25.32842 25.36928 25.41102 25.45347 25.4967 25.54096 25.58641 25.63313 25.68087 25.72911 25.77682 25.82275 25.86563 25.90441 25.93865 25.96854 25.995 26.02228 26.05102 26.08033 26.10995 26.13977 26.16969 26.19966 26.22966 26.25962 26.28941 26.31878 26.34748 26.37526 26.40188 26.42715 26.45091 26.47311 26.49372 26.51277 26.5303 26.54637 26.56106 26.57442 26.58651 26.59735 26.60699 26.61548 26.62286 26.62914 26.63431 26.63836 26.64129 26.64308 26.64373 26.64319 26.64144 26.63841 26.63406 26.6283 26.62111 26.6124 26.60213 26.59021 26.57661 26.56133 26.54433 26.52559 26.505 26.48243 26.45779 26.43104 26.40233 26.37196 26.34027 26.30772 26.27478 26.24186 26.20926 26.17712 26.14555 26.11464 26.08491 26.05761 26.03476 26.01705 25.99848 25.97845 25.95936 25.94113 25.92159 25.90082 25.87944 25.85791 25.8364 25.81496 25.79359 25.77225 25.75093
22.45896 22.62218 22.78161 22.93873 23.09403 23.24713 23.39671 23.54055 23.67606 23.80013 23.90994 24.00637 24.10492 24.20148 24.29495 24.38466 24.47015 24.55108 24.62721 24.6984 24.76458 24.82562 24.88144 24.93162 24.97487 25.00987 25.04844 25.08657 25.1245 25.16257 25.20095 25.2397 25.27881 25.31825 25.35794 25.39779 25.43769 25.47754 25.51719 25.55656 25.5956 25.63424 25.67234 25.70969 25.74603 25.7811 25.8147 25.84666 25.87683 25.905 25.93084 25.95385 25.97341 25.98904 26.00113 26.01143 26.01984 26.02727 26.03505 26.04411 26.05441 26.06551 26.07701 26.08855 26.0999 26.11093 26.12156 26.13172 26.14143 26.15051 26.15912 26.16722 26.17479 26.18182 26.18837 26.1945 26.20026 26.20566 26.2107 26.21533 26.21952 26.22324 26.2265 26.22932 26.23176 26.23382 26.2355 26.23681 26.23772 26.23829 26.23858 26.23873 26.23889 26.23924 26.23989 26.24092 26.24234 26.2441 26.24619 26.24854 26.25107 26.25375 26.25647 26.25911 26.26156 26.26369 26.26541 26.26665 26.26743 26.26774 26.26763 26.26707 26.26601 26.26436 26.26204 26.25897 26.25508 26.25034 26.24468 26.23802 26.23037 26.22173 26.21214 26.20161 26.19017 26.17784 26.16461 26.15059 26.13597 26.121 26.10594 26.09103 26.07638 26.06202 26.04792 26.03424 26.02176 26.01228 26.00335 25.99653 25.98632 25.97486 25.95953 25.94158 25.92135 25.89844 25.87288 25.84498 25.81499 25.78307 25.74944 25.71435 25.67813 25.64122 25.60402 25.56692 25.53025 25.49428 25.45925 25.42529 25.39252 25.361 25.33072 25.30165 25.27374 25.24687 25.22091 25.19567 25.17096 25.14654 25.12236 25.09848 25.07523 25.0534 25.03439 25.01954 25.00494 24.99422 24.97953 24.96487 24.94688 24.92754 24.90847 24.89039 24.87336 24.85732 24.84218 24.82788 24.81435 24.80151 24.78939 24.77805 24.76764 24.7584 24.75053 24.7442 24.73951 24.73642 24.73477 24.73438 24.73503 24.73656 24.73888 24.742 24.74592 24.75068 24.75631 24.76278 24.77011 24.77829 24.78733 24.79722 24.80796 24.8195 24.83175 24.84467 24.85828 24.87266 24.88788 24.90388 24.9205 24.93716 24.95313 24.96793 24.98233 24.9952 25.0027 25.00996 25.01428 25.01821 25.02569 25.03992 25.05848 25.07998 25.10387 25.13011 25.15883 25.19018 25.22418 25.26066 25.2992 25.33926 25.38037 25.42225 25.465 25.50881 25.55388 25.60026 25.64773 25.6957 25.74338 25.78958 25.8332 25.87351 25.91003 25.94279 25.97236 26.00013 26.02698 26.05341 26.08013 26.10722 26.13456 26.16212 26.18999 26.21819 26.24653 26.27478 26.3026 26.3297 26.35577 26.38059 26.40398 26.42586 26.44622 26.46508 26.48248 26.49847 26.51312 26.52647 26.53855 26.54941 26.5591 26.56769 26.57517 26.58158 26.58691 26.59111 26.59422 26.59621 26.59708 26.59679 26.5953 26.59253 26.58845 26.58296 26.57607 26.56767 26.55774 26.5462 26.53304 26.51822 26.50171 26.48343 26.46328 26.4411 26.41677 26.39029 26.36186 26.3318 26.30056 26.26864 26.23661 26.20494 26.17394 26.1437 26.1141 26.08492 26.05627 26.02938 26.00756 25.99374 25.97552 25.95573 25.93582 25.91591 25.89521 25.87363 25.85142 25.82891 25.8063 25.78371 25.76119 25.73874 25.71634
22.41361 22.5827 22.7458 22.90516 23.06173 23.21536 23.3652 23.50957 23.64657 23.77424 23.89087 23.9958 24.08804 24.17952 24.27029 24.35878 24.44395 24.52524 24.60226 24.67473 24.74247 24.80528 24.86295 24.91513 24.96112 25.0008 25.03785 25.07444 25.11117 25.1482 25.18565 25.22355 25.26191 25.30069 25.33981 25.37917 25.41869 25.45827 25.49776 25.53711 25.57623 25.61503 25.65333 25.69088 25.72747 25.76291 25.79706 25.82981 25.86102 25.89053 25.918 25.94305 25.96523 25.98407 25.99889 26.00787 26.01447 26.01998 26.02639 26.03511 26.04553 26.0568 26.06836 26.07986 26.09112 26.102 26.11242 26.12236 26.13167 26.14049 26.14883 26.15659 26.1638 26.17045 26.17661 26.18234 26.18773 26.19273 26.19733 26.2015 26.20518 26.20837 26.21108 26.21339 26.2153 26.21683 26.21796 26.21864 26.21889 26.21872 26.21825 26.21763 26.21708 26.21682 26.217 26.21769 26.2189 26.2206 26.22276 26.22527 26.22804 26.23099 26.23399 26.23687 26.23949 26.24175 26.24352 26.24481 26.24564 26.24604 26.24607 26.24569 26.24483 26.24337 26.24123 26.23833 26.2346 26.23 26.22447 26.21795 26.21041 26.20188 26.1924 26.18197 26.17065 26.1585 26.14557 26.13201 26.11801 26.10377 26.08948 26.07529 26.06128 26.04744 26.03369 26.01995 26.00666 25.99821 25.98878 25.97934 25.96743 25.95324 25.93591 25.91575 25.89305 25.86786 25.84025 25.81047 25.77875 25.74525 25.71023 25.67397 25.6368 25.59914 25.56139 25.52392 25.48706 25.45109 25.41623 25.38267 25.35052 25.31984 25.29061 25.26282 25.23633 25.21102 25.18667 25.16303 25.13978 25.11666 25.09356 25.07049 25.04766 25.02571 25.00653 24.99416 24.979 24.96511 24.94933 24.93253 24.91386 24.89419 24.87459 24.85575 24.83796 24.82129 24.80575 24.79128 24.77777 24.76516 24.75337 24.74241 24.73237 24.72337 24.71558 24.70915 24.70419 24.7007 24.69863 24.69783 24.69815 24.69947 24.70171 24.70485 24.70891 24.7139 24.71982 24.72668 24.73446 24.74315 24.75276 24.76328 24.77468 24.78692 24.79993 24.81367 24.82819 24.84349 24.85959 24.8764 24.89371 24.91118 24.92835 24.94489 24.96072 24.97489 24.98579 24.9951 24.99902 25.00164 25.00782 25.02298 25.04158 25.06226 25.08482 25.10948 25.13656 25.16626 25.19869 25.23374 25.27107 25.31017 25.35054 25.39185 25.43407 25.4774 25.52201 25.56797 25.61503 25.66272 25.71023 25.75668 25.80105 25.84268 25.8812 25.91655 25.94894 25.97857 26.00492 26.02856 26.05259 26.07722 26.10207 26.12717 26.15286 26.17924 26.20617 26.23328 26.2602 26.28654 26.31198 26.33626 26.35919 26.38069 26.40074 26.41935 26.43655 26.45241 26.46696 26.48022 26.49224 26.50308 26.51277 26.52139 26.52894 26.53544 26.54087 26.5452 26.54845 26.55058 26.55164 26.55157 26.5503 26.54777 26.54392 26.5387 26.53208 26.52402 26.51448 26.50338 26.49072 26.47644 26.46045 26.4427 26.42302 26.40128 26.37733 26.35122 26.32315 26.29352 26.26283 26.23165 26.20063 26.17035 26.14123 26.11338 26.08653 26.06 26.0334 26.00747 25.98755 25.97113 25.95263 25.93249 25.91161 25.89024 25.8682 25.84549 25.82224 25.79872 25.77507 25.75144 25.72788 25.70443 25.68107
22.36153 22.53565 22.7025 22.86459 23.02313 23.17822 23.32928 23.47515 23.61435 23.74561 23.8675 23.97763 24.06329 24.15249 24.242 24.32958 24.41438 24.49596 24.57387 24.6477 24.71715 24.78191 24.84181 24.89671 24.94643 24.99068 25.0256 25.06087 25.09663 25.13275 25.16928 25.20634 25.24393 25.28201 25.32051 25.35934 25.39842 25.43765 25.47693 25.51617 25.55527 25.59409 25.63242 25.67003 25.70675 25.74246 25.77711 25.81063 25.84289 25.87371 25.90274 25.92964 25.95407 25.97559 25.99308 26.00129 26.00719 26.01123 26.01651 26.02566 26.03667 26.04825 26.05986 26.07131 26.08243 26.09311 26.10324 26.11271 26.1217 26.13019 26.13815 26.14551 26.15227 26.15847 26.16418 26.1695 26.17447 26.17906 26.18324 26.18694 26.19012 26.19278 26.19498 26.19679 26.19821 26.19925 26.19985 26.19994 26.19949 26.19854 26.19724 26.19581 26.19452 26.19364 26.19336 26.19378 26.19491 26.19669 26.19904 26.20185 26.20498 26.20827 26.21158 26.2147 26.2175 26.21983 26.22165 26.22294 26.22381 26.22431 26.2245 26.22433 26.22371 26.22249 26.22056 26.21783 26.21426 26.2098 26.20441 26.19805 26.19067 26.18229 26.17294 26.16263 26.15146 26.13951 26.12695 26.11399 26.10083 26.08758 26.07433 26.0611 26.04797 26.03508 26.0225 26.01019 25.99809 25.98666 25.97478 25.96213 25.94749 25.93049 25.91074 25.88829 25.86333 25.83598 25.8064 25.77483 25.74146 25.70648 25.67018 25.63282 25.5948 25.5565 25.51833 25.48066 25.44382 25.40806 25.37365 25.34078 25.30954 25.27999 25.25211 25.22586 25.20107 25.17757 25.15507 25.1332 25.11156 25.08983 25.06792 25.04592 25.02389 25.00204 24.98287 24.96691 24.95008 24.93319 24.91533 24.89658 24.87683 24.85657 24.8365 24.81718 24.79894 24.78196 24.76626 24.75181 24.73851 24.72626 24.71496 24.70454 24.695 24.68641 24.67887 24.6725 24.6674 24.66364 24.66119 24.66003 24.66002 24.66112 24.66325 24.6664 24.67057 24.67576 24.68196 24.68915 24.69732 24.70645 24.71657 24.72767 24.73969 24.75261 24.76636 24.78091 24.79628 24.81242 24.82932 24.8469 24.86494 24.8832 24.90133 24.91908 24.93614 24.95172 24.96497 24.97587 24.98316 24.98944 24.99834 25.01174 25.02867 25.04746 25.068 25.09072 25.11596 25.14392 25.17468 25.20816 25.24409 25.28203 25.32149 25.36211 25.40376 25.44654 25.49063 25.53608 25.58267 25.62999 25.67733 25.72385 25.76884 25.81161 25.85181 25.88939 25.92451 25.95729 25.98672 26.00524 26.02674 26.04938 26.07195 26.09451 26.11799 26.14266 26.16823 26.19426 26.22024 26.24575 26.27049 26.29416 26.31655 26.33759 26.35726 26.37554 26.39248 26.40814 26.42251 26.43563 26.44754 26.45828 26.46792 26.47652 26.4841 26.49063 26.49613 26.50055 26.50389 26.50615 26.50733 26.50742 26.50633 26.504 26.50038 26.49542 26.48911 26.48141 26.47229 26.4617 26.44959 26.43588 26.42048 26.40328 26.38413 26.36287 26.33938 26.31371 26.28613 26.25702 26.22697 26.1966 26.16663 26.13776 26.11062 26.08558 26.06229 26.03952 26.01666 25.99437 25.97179 25.95131 25.93057 25.90898 25.8867 25.86383 25.84038 25.81638 25.792 25.7674 25.74276 25.71816 25.69368 25.66933 25.64513
22.29824 22.47842 22.64991 22.8156 22.97697 23.13436 23.28741 23.43519 23.57637 23.70944 23.83178 23.9388 24.02545 24.11955 24.20957 24.29632 24.38071 24.46266 24.54163 24.61701 24.68831 24.75517 24.81726 24.87438 24.92606 24.97113 25.00789 25.04457 25.08036 25.1159 25.15166 25.18792 25.22476 25.26215 25.3 25.33824 25.37682 25.41564 25.45462 25.49366 25.53261 25.57129 25.60953 25.64709 25.68386 25.71979 25.75489 25.78913 25.82235 25.85427 25.88454 25.91267 25.93821 25.96052 25.97834 25.98954 25.99724 26.00111 26.00603 26.01668 26.02847 26.04018 26.05165 26.06292 26.07383 26.08418 26.09375 26.10279 26.11135 26.1194 26.12687 26.13371 26.13993 26.14561 26.15084 26.15572 26.16029 26.1645 26.16827 26.17152 26.17423 26.17641 26.17814 26.17949 26.1805 26.1811 26.18121 26.18073 26.17957 26.17782 26.17564 26.17333 26.17125 26.16974 26.16904 26.16929 26.17046 26.17248 26.17519 26.17842 26.18198 26.18567 26.18927 26.19262 26.19551 26.19785 26.19961 26.20087 26.20174 26.20234 26.20272 26.20282 26.20247 26.20151 26.19979 26.19725 26.19382 26.18949 26.18425 26.17807 26.17089 26.16272 26.15356 26.14342 26.13241 26.12068 26.10852 26.09626 26.08412 26.07212 26.06013 26.04803 26.03586 26.02393 26.01255 26.00154 25.98889 25.97504 25.96026 25.94434 25.92665 25.90679 25.88446 25.85964 25.83245 25.80305 25.77159 25.73829 25.70334 25.66697 25.62944 25.59107 25.55227 25.51344 25.475 25.43731 25.40069 25.36542 25.33175 25.29985 25.26982 25.24168 25.2154 25.19091 25.16802 25.1465 25.126 25.10603 25.08608 25.06579 25.04516 25.02449 25.00406 24.98196 24.96004 24.9395 24.91918 24.89895 24.87844 24.85758 24.83642 24.81528 24.79464 24.77492 24.75644 24.73936 24.72374 24.70954 24.69663 24.68492 24.67423 24.66447 24.65557 24.64752 24.64039 24.63423 24.62915 24.62522 24.6225 24.62102 24.62074 24.62163 24.62366 24.62679 24.63104 24.63639 24.6428 24.65026 24.65875 24.66827 24.67883 24.69044 24.70305 24.71662 24.73111 24.74646 24.76266 24.77965 24.79736 24.8157 24.83449 24.85354 24.87259 24.89143 24.90973 24.92691 24.94238 24.95587 24.96716 24.97771 24.98939 25.00284 25.01853 25.03493 25.05283 25.07334 25.09674 25.123 25.15207 25.1839 25.21829 25.25487 25.29323 25.333 25.37396 25.41612 25.4596 25.50442 25.55045 25.59729 25.64433 25.69087 25.73621 25.77982 25.82124 25.86024 25.89675 25.93027 25.95923 25.98082 26.00169 26.02341 26.04402 26.06381 26.08519 26.10836 26.13275 26.15771 26.1827 26.20734 26.23127 26.25423 26.27602 26.29654 26.31575 26.33366 26.35027 26.36564 26.37976 26.39266 26.40437 26.41496 26.42449 26.43302 26.44057 26.4471 26.45261 26.45705 26.46044 26.46278 26.46407 26.46428 26.46333 26.46116 26.45774 26.45304 26.44706 26.43975 26.43112 26.42107 26.40955 26.39646 26.38167 26.36506 26.34649 26.32577 26.30282 26.2777 26.25071 26.22226 26.19292 26.16337 26.13436 26.10674 26.08145 26.05926 26.04001 26.02084 26.00003 25.9778 25.95435 25.93129 25.90823 25.88477 25.86084 25.83643 25.81155 25.78627 25.76073 25.73509 25.70949 25.684 25.65867 25.63352 25.60856
22.22085 22.40952 22.58723 22.75766 22.92277 23.08321 23.2388 23.3889 23.5323 23.66763 23.79287 23.90502 24.00204 24.09058 24.17503 24.25885 24.34245 24.42499 24.50534 24.58256 24.65594 24.72501 24.78938 24.84876 24.90282 24.95097 24.99285 25.02797 25.06296 25.09772 25.13269 25.16823 25.20436 25.24105 25.27823 25.31584 25.35386 25.39221 25.43082 25.46954 25.5082 25.54663 25.58465 25.62209 25.65888 25.69502 25.73057 25.76545 25.79944 25.83221 25.86328 25.89207 25.91809 25.94073 25.95927 25.97309 25.9835 25.99136 25.9996 26.01015 26.02163 26.03268 26.04361 26.05459 26.0652 26.07491 26.08393 26.09241 26.10041 26.10786 26.11473 26.12095 26.12654 26.13163 26.13634 26.14078 26.14498 26.14885 26.1523 26.15517 26.15748 26.15924 26.16056 26.16154 26.16219 26.16244 26.16212 26.1611 26.15926 26.1567 26.15359 26.15033 26.14738 26.1452 26.14414 26.14434 26.14574 26.14817 26.15139 26.15515 26.1592 26.16327 26.16712 26.17059 26.17348 26.1757 26.17731 26.17841 26.17923 26.1799 26.1805 26.1809 26.18087 26.18019 26.17869 26.17629 26.17297 26.16876 26.16368 26.15773 26.15087 26.14303 26.13415 26.12425 26.11341 26.10187 26.09006 26.07851 26.06759 26.05713 26.04665 26.03575 26.02437 26.013 26.0025 25.99336 25.97845 25.96187 25.94417 25.9252 25.90455 25.88191 25.85705 25.82991 25.80058 25.7692 25.73594 25.70098 25.66456 25.62685 25.58817 25.54886 25.50938 25.47014 25.4316 25.3941 25.35795 25.32347 25.29084 25.26022 25.23165 25.20513 25.18062 25.158 25.1371 25.11765 25.09922 25.08121 25.06293 25.044 25.02454 25.00513 24.98809 24.96208 24.93563 24.91036 24.88597 24.86221 24.83879 24.81564 24.79281 24.77055 24.74921 24.72911 24.71051 24.69355 24.67824 24.66453 24.65224 24.64122 24.63131 24.62233 24.61418 24.6068 24.60017 24.59435 24.58941 24.58545 24.58257 24.58085 24.58034 24.58105 24.58297 24.58609 24.59038 24.59583 24.6024 24.61008 24.61883 24.62866 24.63959 24.65165 24.66481 24.67903 24.69425 24.71041 24.72747 24.74533 24.76392 24.78308 24.80268 24.82256 24.84257 24.86254 24.88221 24.90116 24.91899 24.93548 24.9507 24.96546 24.98074 24.99652 25.01034 25.02364 25.03837 25.05675 25.07856 25.10331 25.1308 25.16097 25.1937 25.22875 25.26579 25.30448 25.34458 25.38598 25.42874 25.47284 25.51817 25.5644 25.61102 25.6574 25.70289 25.74697 25.78919 25.82912 25.86642 25.90049 25.9302 25.95491 25.97747 25.99908 26.01813 26.0347 26.05438 26.07652 26.09993 26.12379 26.14767 26.17128 26.19431 26.2165 26.2376 26.25751 26.27621 26.29366 26.30989 26.32489 26.33867 26.35126 26.36271 26.37307 26.38244 26.39087 26.39833 26.40482 26.41028 26.41469 26.41807 26.42043 26.42178 26.42206 26.42123 26.4192 26.41598 26.41153 26.40589 26.39902 26.3909 26.38143 26.37053 26.35807 26.34392 26.32792 26.30995 26.28985 26.26754 26.24311 26.21684 26.18916 26.16062 26.13192 26.10381 26.07719 26.0532 26.03344 26.01888 26.00323 25.98292 25.95948 25.93463 25.90957 25.8845 25.85925 25.83371 25.80782 25.78161 25.75512 25.7285 25.70187 25.67538 25.64908 25.62297 25.59709 25.57143
